19.750000 1.368421 10.000000 
19.750000 1.473684 10.000000 
19.750000 1.578947 10.000000 
19.750000 1.684211 10.000000 
19.750000 1.789474 10.000000 
19.750000 1.894737 10.000000 
19.750000 2.000000 10.000000 
19.750000 2.105263 10.000000 
20.000000 0.000000 10.000000 
20.000000 0.105263 10.000000 
20.000000 0.210526 10.000000 
20.000000 0.315789 10.000000 
20.000000 0.421053 10.000000 
20.000000 0.526316 10.000000 
20.000000 0.631579 10.000000 
20.000000 0.736842 10.000000 
20.000000 0.842105 10.000000 
20.000000 0.947368 10.000000 
20.000000 1.052632 10.000000 
20.000000 1.157895 10.000000 
20.000000 1.263158 10.000000 
20.000000 1.368421 10.000000 
20.000000 1.473684 10.000000 
20.000000 1.578947 10.000000 
20.000000 1.684211 10.000000 
20.000000 1.789474 10.000000 
20.000000 1.894737 10.000000 
20.000000 2.000000 10.000000 
20.000000 2.105263 10.000000 
20.250000 0.000000 9.992500 
20.250000 0.105263 9.992500 
20.250000 0.210526 9.992500 
20.250000 0.315789 9.992500 
20.250000 0.421053 9.992500 
20.250000 0.526316 9.992500 
20.250000 0.631579 9.992500 
20.250000 0.736842 9.992500 
20.250000 0.842105 9.992500 
20.250000 0.947368 9.992500 
20.250000 1.052632 9.992500 
20.250000 1.157895 9.992500 
20.250000 1.263158 9.992500 
20.250000 1.368421 9.992500 
20.250000 1.473684 9.992500 
20.250000 1.578947 9.992500 
20.250000 1.684211 9.992500 
20.250000 1.789474 9.992500 
20.250000 1.894737 9.992500 
20.250000 2.000000 9.992500 
20.250000 2.105263 9.992500 
20.500000 0.000000 9.985000 
20.500000 0.105263 9.985000 
20.500000 0.210526 9.985000 
20.500000 0.315789 9.985000 
20.500000 0.421053 9.985000 
20.500000 0.526316 9.985000 
20.500000 0.631579 9.985000 
20.500000 0.736842 9.985000 
20.500000 0.842105 9.985000 
20.500000 0.947368 9.985000 
20.500000 1.052632 9.985000 
20.500000 1.157895 9.985000 
20.500000 1.263158 9.985000 
20.500000 1.368421 9.985000 
20.500000 1.473684 9.985000 
20.500000 1.578947 9.985000 
20.500000 1.684211 9.985000 
20.500000 1.789474 9.985000 
20.500000 1.894737 9.985000 
20.500000 2.000000 9.985000 
20.500000 2.105263 9.985000 
20.750000 0.000000 9.977500 
20.750000 0.105263 9.977500 
20.750000 0.210526 9.977500 
20.750000 0.315789 9.977500 
20.750000 0.421053 9.977500 
20.750000 0.526316 9.977500 
20.750000 0.631579 9.977500 
20.750000 0.736842 9.977500 
20.750000 0.842105 9.977500 
20.750000 0.947368 9.977500 
20.750000 1.052632 9.977500 
20.750000 1.157895 9.977500 
20.750000 1.263158 9.977500 
20.750000 1.368421 9.977500 
20.750000 1.473684 9.977500 
20.750000 1.578947 9.977500 
20.750000 1.684211 9.977500 
20.750000 1.789474 9.977500 
20.750000 1.894737 9.977500 
20.750000 2.000000 9.977500 
20.750000 2.105263 9.977500 
21.000000 0.000000 9.970000 
21.000000 0.105263 9.970000 
21.000000 0.210526 9.970000 
21.000000 0.315789 9.970000 
21.000000 0.421053 9.970000 
21.000000 0.526316 9.970000 
21.000000 0.631579 9.970000 
21.000000 0.736842 9.970000 
21.000000 0.842105 9.970000 
21.000000 0.947368 9.970000 
21.000000 1.052632 9.970000 
21.000000 1.157895 9.970000 
21.000000 1.263158 9.970000 
21.000000 1.368421 9.970000 
21.000000 1.473684 9.970000 
21.000000 1.578947 9.970000 
21.000000 1.684211 9.970000 
21.000000 1.789474 9.970000 
21.000000 1.894737 9.970000 
21.000000 2.000000 9.970000 
21.000000 2.105263 9.970000 
21.250000 0.000000 9.962500 
21.250000 0.105263 9.962500 
21.250000 0.210526 9.962500 
21.250000 0.315789 9.962500 
21.250000 0.421053 9.962500 
21.250000 0.526316 9.962500 
21.250000 0.631579 9.962500 
21.250000 0.736842 9.962500 
21.250000 0.842105 9.962500 
21.250000 0.947368 9.962500 
21.250000 1.052632 9.962500 
21.250000 1.157895 9.962500 
21.250000 1.263158 9.962500 
21.250000 1.368421 9.962500 
21.250000 1.473684 9.962500 
21.250000 1.578947 9.962500 
21.250000 1.684211 9.962500 
21.250000 1.789474 9.962500 
21.250000 1.894737 9.962500 
21.250000 2.000000 9.962500 
21.250000 2.105263 9.962500 
21.500000 0.000000 9.955000 
21.500000 0.105263 9.955000 
21.500000 0.210526 9.955000 
21.500000 0.315789 9.955000 
21.500000 0.421053 9.955000 
21.500000 0.526316 9.955000 
21.500000 0.631579 9.955000 
21.500000 0.736842 9.955000 
21.500000 0.842105 9.955000 
21.500000 0.947368 9.955000 
21.500000 1.052632 9.955000 
21.500000 1.157895 9.955000 
21.500000 1.263158 9.955000 
21.500000 1.368421 9.955000 
21.500000 1.473684 9.955000 
21.500000 1.578947 9.955000 
21.500000 1.684211 9.955000 
21.500000 1.789474 9.955000 
21.500000 1.894737 9.955000 
21.500000 2.000000 9.955000 
21.500000 2.105263 9.955000 
21.750000 0.000000 9.947500 
21.750000 0.105263 9.947500 
21.750000 0.210526 9.947500 
21.750000 0.315789 9.947500 
21.750000 0.421053 9.947500 
21.750000 0.526316 9.947500 
21.750000 0.631579 9.947500 
21.750000 0.736842 9.947500 
21.750000 0.842105 9.947500 
21.750000 0.947368 9.947500 
21.750000 1.052632 9.947500 
21.750000 1.157895 9.947500 
21.750000 1.263158 9.947500 
21.750000 1.368421 9.947500 
21.750000 1.473684 9.947500 
21.750000 1.578947 9.947500 
21.750000 1.684211 9.947500 
21.750000 1.789474 9.947500 
21.750000 1.894737 9.947500 
21.750000 2.000000 9.947500 
21.750000 2.105263 9.947500 
22.000000 0.000000 9.940000 
22.000000 0.105263 9.940000 
22.000000 0.210526 9.940000 
22.000000 0.315789 9.940000 
22.000000 0.421053 9.940000 
22.000000 0.526316 9.940000 
22.000000 0.631579 9.940000 
22.000000 0.736842 9.940000 
22.000000 0.842105 9.940000 
22.000000 0.947368 9.940000 
22.000000 1.052632 9.940000 
22.000000 1.157895 9.940000 
22.000000 1.263158 9.940000 
22.000000 1.368421 9.940000 
22.000000 1.473684 9.940000 
22.000000 1.578947 9.940000 
22.000000 1.684211 9.940000 
22.000000 1.789474 9.940000 
22.000000 1.894737 9.940000 
22.000000 2.000000 9.940000 
22.000000 2.105263 9.940000 
22.250000 0.000000 9.932500 
22.250000 0.105263 9.932500 
22.250000 0.210526 9.932500 
22.250000 0.315789 9.932500 
22.250000 0.421053 9.932500 
22.250000 0.526316 9.932500 
22.250000 0.631579 9.932500 
22.250000 0.736842 9.932500 
22.250000 0.842105 9.932500 
22.250000 0.947368 9.932500 
22.250000 1.052632 9.932500 
22.250000 1.157895 9.932500 
22.250000 1.263158 9.932500 
22.250000 1.368421 9.932500 
22.250000 1.473684 9.932500 
22.250000 1.578947 9.932500 
22.250000 1.684211 9.932500 
22.250000 1.789474 9.932500 
22.250000 1.894737 9.932500 
22.250000 2.000000 9.932500 
22.250000 2.105263 9.932500 
22.500000 0.000000 9.925000 
22.500000 0.105263 9.925000 
22.500000 0.210526 9.925000 
22.500000 0.315789 9.925000 
22.500000 0.421053 9.925000 
22.500000 0.526316 9.925000 
22.500000 0.631579 9.925000 
22.500000 0.736842 9.925000 
22.500000 0.842105 9.925000 
22.500000 0.947368 9.925000 
22.500000 1.052632 9.925000 
22.500000 1.157895 9.925000 
22.500000 1.263158 9.925000 
22.500000 1.368421 9.925000 
22.500000 1.473684 9.925000 
22.500000 1.578947 9.925000 
22.500000 1.684211 9.925000 
22.500000 1.789474 9.925000 
22.500000 1.894737 9.925000 
22.500000 2.000000 9.925000 
22.500000 2.105263 9.925000 
22.750000 0.000000 9.917500 
22.750000 0.105263 9.917500 
22.750000 0.210526 9.917500 
22.750000 0.315789 9.917500 
22.750000 0.421053 9.917500 
22.750000 0.526316 9.917500 
22.750000 0.631579 9.917500 
22.750000 0.736842 9.917500 
22.750000 0.842105 9.917500 
22.750000 0.947368 9.917500 
22.750000 1.052632 9.917500 
22.750000 1.157895 9.917500 
22.750000 1.263158 9.917500 
22.750000 1.368421 9.917500 
22.750000 1.473684 9.917500 
22.750000 1.578947 9.917500 
22.750000 1.684211 9.917500 
22.750000 1.789474 9.917500 
22.750000 1.894737 9.917500 
22.750000 2.000000 9.917500 
22.750000 2.105263 9.917500 
23.000000 0.000000 9.910000 
23.000000 0.105263 9.910000 
23.000000 0.210526 9.910000 
23.000000 0.315789 9.910000 
23.000000 0.421053 9.910000 
23.000000 0.526316 9.910000 
23.000000 0.631579 9.910000 
23.000000 0.736842 9.910000 
23.000000 0.842105 9.910000 
23.000000 0.947368 9.910000 
23.000000 1.052632 9.910000 
23.000000 1.157895 9.910000 
23.000000 1.263158 9.910000 
23.000000 1.368421 9.910000 
23.000000 1.473684 9.910000 
23.000000 1.578947 9.910000 
23.000000 1.684211 9.910000 
23.000000 1.789474 9.910000 
23.000000 1.894737 9.910000 
23.000000 2.000000 9.910000 
23.000000 2.105263 9.910000 
23.250000 0.000000 9.902500 
23.250000 0.105263 9.902500 
23.250000 0.210526 9.902500 
23.250000 0.315789 9.902500 
23.250000 0.421053 9.902500 
23.250000 0.526316 9.902500 
23.250000 0.631579 9.902500 
23.250000 0.736842 9.902500 
23.250000 0.842105 9.902500 
23.250000 0.947368 9.902500 
23.250000 1.052632 9.902500 
23.250000 1.157895 9.902500 
23.250000 1.263158 9.902500 
23.250000 1.368421 9.902500 
23.250000 1.473684 9.902500 
23.250000 1.578947 9.902500 
23.250000 1.684211 9.902500 
23.250000 1.789474 9.902500 
23.250000 1.894737 9.902500 
23.250000 2.000000 9.902500 
23.250000 2.105263 9.902500 
23.500000 0.000000 9.895000 
23.500000 0.105263 9.895000 
23.500000 0.210526 9.895000 
23.500000 0.315789 9.895000 
23.500000 0.421053 9.895000 
23.500000 0.526316 9.895000 
23.500000 0.631579 9.895000 
23.500000 0.736842 9.895000 
23.500000 0.842105 9.895000 
23.500000 0.947368 9.895000 
23.500000 1.052632 9.895000 
23.500000 1.157895 9.895000 
23.500000 1.263158 9.895000 
23.500000 1.368421 9.895000 
23.500000 1.473684 9.895000 
23.500000 1.578947 9.895000 
23.500000 1.684211 9.895000 
23.500000 1.789474 9.895000 
23.500000 1.894737 9.895000 
23.500000 2.000000 9.895000 
23.500000 2.105263 9.895000 
23.750000 0.000000 9.887500 
23.750000 0.105263 9.887500 
23.750000 0.210526 9.887500 
23.750000 0.315789 9.887500 
23.750000 0.421053 9.887500 
23.750000 0.526316 9.887500 
23.750000 0.631579 9.887500 
23.750000 0.736842 9.887500 
23.750000 0.842105 9.887500 
23.750000 0.947368 9.887500 
23.750000 1.052632 9.887500 
23.750000 1.157895 9.887500 
23.750000 1.263158 9.887500 
23.750000 1.368421 9.887500 
23.750000 1.473684 9.887500 
23.750000 1.578947 9.887500 
23.750000 1.684211 9.887500 
23.750000 1.789474 9.887500 
23.750000 1.894737 9.887500 
23.750000 2.000000 9.887500 
23.750000 2.105263 9.887500 
24.000000 0.000000 9.880000 
24.000000 0.105263 9.880000 
24.000000 0.210526 9.880000 
24.000000 0.315789 9.880000 
24.000000 0.421053 9.880000 
24.000000 0.526316 9.880000 
24.000000 0.631579 9.880000 
24.000000 0.736842 9.880000 
24.000000 0.842105 9.880000 
24.000000 0.947368 9.880000 
24.000000 1.052632 9.880000 
24.000000 1.157895 9.880000 
24.000000 1.263158 9.880000 
24.000000 1.368421 9.880000 
24.000000 1.473684 9.880000 
24.000000 1.578947 9.880000 
24.000000 1.684211 9.880000 
24.000000 1.789474 9.880000 
24.000000 1.894737 9.880000 
24.000000 2.000000 9.880000 
24.000000 2.105263 9.880000 
24.250000 0.000000 9.872500 
24.250000 0.105263 9.872500 
24.250000 0.210526 9.872500 
24.250000 0.315789 9.872500 
24.250000 0.421053 9.872500 
24.250000 0.526316 9.872500 
24.250000 0.631579 9.872500 
24.250000 0.736842 9.872500 
24.250000 0.842105 9.872500 
24.250000 0.947368 9.872500 
24.250000 1.052632 9.872500 
24.250000 1.157895 9.872500 
24.250000 1.263158 9.872500 
24.250000 1.368421 9.872500 
24.250000 1.473684 9.872500 
24.250000 1.578947 9.872500 
24.250000 1.684211 9.872500 
24.250000 1.789474 9.872500 
24.250000 1.894737 9.872500 
24.250000 2.000000 9.872500 
24.250000 2.105263 9.872500 
24.500000 0.000000 9.865000 
24.500000 0.105263 9.865000 
24.500000 0.210526 9.865000 
24.500000 0.315789 9.865000 
24.500000 0.421053 9.865000 
24.500000 0.526316 9.865000 
24.500000 0.631579 9.865000 
24.500000 0.736842 9.865000 
24.500000 0.842105 9.865000 
24.500000 0.947368 9.865000 
24.500000 1.052632 9.865000 
24.500000 1.157895 9.865000 
24.500000 1.263158 9.865000 
24.500000 1.368421 9.865000 
24.500000 1.473684 9.865000 
24.500000 1.578947 9.865000 
24.500000 1.684211 9.865000 
24.500000 1.789474 9.865000 
24.500000 1.894737 9.865000 
24.500000 2.000000 9.865000 
24.500000 2.105263 9.865000 
24.750000 0.000000 9.857500 
24.750000 0.105263 9.857500 
24.750000 0.210526 9.857500 
24.750000 0.315789 9.857500 
24.750000 0.421053 9.857500 
24.750000 0.526316 9.857500 
24.750000 0.631579 9.857500 
24.750000 0.736842 9.857500 
24.750000 0.842105 9.857500 
24.750000 0.947368 9.857500 
24.750000 1.052632 9.857500 
24.750000 1.157895 9.857500 
24.750000 1.263158 9.857500 
24.750000 1.368421 9.857500 
24.750000 1.473684 9.857500 
24.750000 1.578947 9.857500 
24.750000 1.684211 9.857500 
24.750000 1.789474 9.857500 
24.750000 1.894737 9.857500 
24.750000 2.000000 9.857500 
24.750000 2.105263 9.857500 
25.000000 0.000000 9.850000 
25.000000 0.105263 9.850000 
25.000000 0.210526 9.850000 
25.000000 0.315789 9.850000 
25.000000 0.421053 9.850000 
25.000000 0.526316 9.850000 
25.000000 0.631579 9.850000 
25.000000 0.736842 9.850000 
25.000000 0.842105 9.850000 
25.000000 0.947368 9.850000 
25.000000 1.052632 9.850000 
25.000000 1.157895 9.850000 
25.000000 1.263158 9.850000 
25.000000 1.368421 9.850000 
25.000000 1.473684 9.850000 
25.000000 1.578947 9.850000 
25.000000 1.684211 9.850000 
25.000000 1.789474 9.850000 
25.000000 1.894737 9.850000 
25.000000 2.000000 9.850000 
25.000000 2.105263 9.850000 
25.250000 0.000000 9.842500 
25.250000 0.105263 9.842500 
25.250000 0.210526 9.842500 
25.250000 0.315789 9.842500 
25.250000 0.421053 9.842500 
25.250000 0.526316 9.842500 
25.250000 0.631579 9.842500 
25.250000 0.736842 9.842500 
25.250000 0.842105 9.842500 
25.250000 0.947368 9.842500 
25.250000 1.052632 9.842500 
25.250000 1.157895 9.842500 
25.250000 1.263158 9.842500 
25.250000 1.368421 9.842500 
25.250000 1.473684 9.842500 
25.250000 1.578947 9.842500 
25.250000 1.684211 9.842500 
25.250000 1.789474 9.842500 
25.250000 1.894737 9.842500 
25.250000 2.000000 9.842500 
25.250000 2.105263 9.842500 
25.500000 0.000000 9.835000 
25.500000 0.105263 9.835000 
25.500000 0.210526 9.835000 
25.500000 0.315789 9.835000 
25.500000 0.421053 9.835000 
25.500000 0.526316 9.835000 
25.500000 0.631579 9.835000 
25.500000 0.736842 9.835000 
25.500000 0.842105 9.835000 
25.500000 0.947368 9.835000 
25.500000 1.052632 9.835000 
25.500000 1.157895 9.835000 
25.500000 1.263158 9.835000 
25.500000 1.368421 9.835000 
25.500000 1.473684 9.835000 
25.500000 1.578947 9.835000 
25.500000 1.684211 9.835000 
25.500000 1.789474 9.835000 
25.500000 1.894737 9.835000 
25.500000 2.000000 9.835000 
25.500000 2.105263 9.835000 
25.750000 0.000000 9.827500 
25.750000 0.105263 9.827500 
25.750000 0.210526 9.827500 
25.750000 0.315789 9.827500 
25.750000 0.421053 9.827500 
25.750000 0.526316 9.827500 
25.750000 0.631579 9.827500 
25.750000 0.736842 9.827500 
25.750000 0.842105 9.827500 
25.750000 0.947368 9.827500 
25.750000 1.052632 9.827500 
25.750000 1.157895 9.827500 
25.750000 1.263158 9.827500 
25.750000 1.368421 9.827500 
25.750000 1.473684 9.827500 
25.750000 1.578947 9.827500 
25.750000 1.684211 9.827500 
25.750000 1.789474 9.827500 
25.750000 1.894737 9.827500 
25.750000 2.000000 9.827500 
25.750000 2.105263 9.827500 
26.000000 0.000000 9.820000 
26.000000 0.105263 9.820000 
26.000000 0.210526 9.820000 
26.000000 0.315789 9.820000 
26.000000 0.421053 9.820000 
26.000000 0.526316 9.820000 
26.000000 0.631579 9.820000 
26.000000 0.736842 9.820000 
26.000000 0.842105 9.820000 
26.000000 0.947368 9.820000 
26.000000 1.052632 9.820000 
26.000000 1.157895 9.820000 
26.000000 1.263158 9.820000 
26.000000 1.368421 9.820000 
26.000000 1.473684 9.820000 
26.000000 1.578947 9.820000 
26.000000 1.684211 9.820000 
26.000000 1.789474 9.820000 
26.000000 1.894737 9.820000 
26.000000 2.000000 9.820000 
26.000000 2.105263 9.820000 
26.250000 0.000000 9.812500 
26.250000 0.105263 9.812500 
26.250000 0.210526 9.812500 
26.250000 0.315789 9.812500 
26.250000 0.421053 9.812500 
26.250000 0.526316 9.812500 
26.250000 0.631579 9.812500 
26.250000 0.736842 9.812500 
26.250000 0.842105 9.812500 
26.250000 0.947368 9.812500 
26.250000 1.052632 9.812500 
26.250000 1.157895 9.812500 
26.250000 1.263158 9.812500 
26.250000 1.368421 9.812500 
26.250000 1.473684 9.812500 
26.250000 1.578947 9.812500 
26.250000 1.684211 9.812500 
26.250000 1.789474 9.812500 
26.250000 1.894737 9.812500 
26.250000 2.000000 9.812500 
26.250000 2.105263 9.812500 
26.500000 0.000000 9.805000 
26.500000 0.105263 9.805000 
26.500000 0.210526 9.805000 
26.500000 0.315789 9.805000 
26.500000 0.421053 9.805000 
26.500000 0.526316 9.805000 
26.500000 0.631579 9.805000 
26.500000 0.736842 9.805000 
26.500000 0.842105 9.805000 
26.500000 0.947368 9.805000 
26.500000 1.052632 9.805000 
26.500000 1.157895 9.805000 
26.500000 1.263158 9.805000 
26.500000 1.368421 9.805000 
26.500000 1.473684 9.805000 
26.500000 1.578947 9.805000 
26.500000 1.684211 9.805000 
26.500000 1.789474 9.805000 
26.500000 1.894737 9.805000 
26.500000 2.000000 9.805000 
26.500000 2.105263 9.805000 
26.750000 0.000000 9.797500 
26.750000 0.105263 9.797500 
26.750000 0.210526 9.797500 
26.750000 0.315789 9.797500 
26.750000 0.421053 9.797500 
26.750000 0.526316 9.797500 
26.750000 0.631579 9.797500 
26.750000 0.736842 9.797500 
26.750000 0.842105 9.797500 
26.750000 0.947368 9.797500 
26.750000 1.052632 9.797500 
26.750000 1.157895 9.797500 
26.750000 1.263158 9.797500 
26.750000 1.368421 9.797500 
26.750000 1.473684 9.797500 
26.750000 1.578947 9.797500 
26.750000 1.684211 9.797500 
26.750000 1.789474 9.797500 
26.750000 1.894737 9.797500 
26.750000 2.000000 9.797500 
26.750000 2.105263 9.797500 
27.000000 0.000000 9.790000 
27.000000 0.105263 9.790000 
27.000000 0.210526 9.790000 
27.000000 0.315789 9.790000 
27.000000 0.421053 9.790000 
27.000000 0.526316 9.790000 
27.000000 0.631579 9.790000 
27.000000 0.736842 9.790000 
27.000000 0.842105 9.790000 
27.000000 0.947368 9.790000 
27.000000 1.052632 9.790000 
27.000000 1.157895 9.790000 
27.000000 1.263158 9.790000 
27.000000 1.368421 9.790000 
27.000000 1.473684 9.790000 
27.000000 1.578947 9.790000 
27.000000 1.684211 9.790000 
27.000000 1.789474 9.790000 
27.000000 1.894737 9.790000 
27.000000 2.000000 9.790000 
27.000000 2.105263 9.790000 
27.250000 0.000000 9.782500 
27.250000 0.105263 9.782500 
27.250000 0.210526 9.782500 
27.250000 0.315789 9.782500 
27.250000 0.421053 9.782500 
27.250000 0.526316 9.782500 
27.250000 0.631579 9.782500 
27.250000 0.736842 9.782500 
27.250000 0.842105 9.782500 
27.250000 0.947368 9.782500 
27.250000 1.052632 9.782500 
27.250000 1.157895 9.782500 
27.250000 1.263158 9.782500 
27.250000 1.368421 9.782500 
27.250000 1.473684 9.782500 
27.250000 1.578947 9.782500 
27.250000 1.684211 9.782500 
27.250000 1.789474 9.782500 
27.250000 1.894737 9.782500 
27.250000 2.000000 9.782500 
27.250000 2.105263 9.782500 
27.500000 0.000000 9.775000 
27.500000 0.105263 9.775000 
27.500000 0.210526 9.775000 
27.500000 0.315789 9.775000 
27.500000 0.421053 9.775000 
27.500000 0.526316 9.775000 
27.500000 0.631579 9.775000 
27.500000 0.736842 9.775000 
27.500000 0.842105 9.775000 
27.500000 0.947368 9.775000 
27.500000 1.052632 9.775000 
27.500000 1.157895 9.775000 
27.500000 1.263158 9.775000 
27.500000 1.368421 9.775000 
27.500000 1.473684 9.775000 
27.500000 1.578947 9.775000 
27.500000 1.684211 9.775000 
27.500000 1.789474 9.775000 
27.500000 1.894737 9.775000 
27.500000 2.000000 9.775000 
27.500000 2.105263 9.775000 
27.750000 0.000000 9.767500 
27.750000 0.105263 9.767500 
27.750000 0.210526 9.767500 
27.750000 0.315789 9.767500 
27.750000 0.421053 9.767500 
27.750000 0.526316 9.767500 
27.750000 0.631579 9.767500 
27.750000 0.736842 9.767500 
27.750000 0.842105 9.767500 
27.750000 0.947368 9.767500 
27.750000 1.052632 9.767500 
27.750000 1.157895 9.767500 
27.750000 1.263158 9.767500 
27.750000 1.368421 9.767500 
27.750000 1.473684 9.767500 
27.750000 1.578947 9.767500 
27.750000 1.684211 9.767500 
27.750000 1.789474 9.767500 
27.750000 1.894737 9.767500 
27.750000 2.000000 9.767500 
27.750000 2.105263 9.767500 
28.000000 0.000000 9.760000 
28.000000 0.105263 9.760000 
28.000000 0.210526 9.760000 
28.000000 0.315789 9.760000 
28.000000 0.421053 9.760000 
28.000000 0.526316 9.760000 
28.000000 0.631579 9.760000 
28.000000 0.736842 9.760000 
28.000000 0.842105 9.760000 
28.000000 0.947368 9.760000 
28.000000 1.052632 9.760000 
28.000000 1.157895 9.760000 
28.000000 1.263158 9.760000 
28.000000 1.368421 9.760000 
28.000000 1.473684 9.760000 
28.000000 1.578947 9.760000 
28.000000 1.684211 9.760000 
28.000000 1.789474 9.760000 
28.000000 1.894737 9.760000 
28.000000 2.000000 9.760000 
28.000000 2.105263 9.760000 
28.250000 0.000000 9.752500 
28.250000 0.105263 9.752500 
28.250000 0.210526 9.752500 
28.250000 0.315789 9.752500 
28.250000 0.421053 9.752500 
28.250000 0.526316 9.752500 
28.250000 0.631579 9.752500 
28.250000 0.736842 9.752500 
28.250000 0.842105 9.752500 
28.250000 0.947368 9.752500 
28.250000 1.052632 9.752500 
28.250000 1.157895 9.752500 
28.250000 1.263158 9.752500 
28.250000 1.368421 9.752500 
28.250000 1.473684 9.752500 
28.250000 1.578947 9.752500 
28.250000 1.684211 9.752500 
28.250000 1.789474 9.752500 
28.250000 1.894737 9.752500 
28.250000 2.000000 9.752500 
28.250000 2.105263 9.752500 
28.500000 0.000000 9.745000 
28.500000 0.105263 9.745000 
28.500000 0.210526 9.745000 
28.500000 0.315789 9.745000 
28.500000 0.421053 9.745000 
28.500000 0.526316 9.745000 
28.500000 0.631579 9.745000 
28.500000 0.736842 9.745000 
28.500000 0.842105 9.745000 
28.500000 0.947368 9.745000 
28.500000 1.052632 9.745000 
28.500000 1.157895 9.745000 
28.500000 1.263158 9.745000 
28.500000 1.368421 9.745000 
28.500000 1.473684 9.745000 
28.500000 1.578947 9.745000 
28.500000 1.684211 9.745000 
28.500000 1.789474 9.745000 
28.500000 1.894737 9.745000 
28.500000 2.000000 9.745000 
28.500000 2.105263 9.745000 
28.750000 0.000000 9.737500 
28.750000 0.105263 9.737500 
28.750000 0.210526 9.737500 
28.750000 0.315789 9.737500 
28.750000 0.421053 9.737500 
28.750000 0.526316 9.737500 
28.750000 0.631579 9.737500 
28.750000 0.736842 9.737500 
28.750000 0.842105 9.737500 
28.750000 0.947368 9.737500 
28.750000 1.052632 9.737500 
28.750000 1.157895 9.737500 
28.750000 1.263158 9.737500 
28.750000 1.368421 9.737500 
28.750000 1.473684 9.737500 
28.750000 1.578947 9.737500 
28.750000 1.684211 9.737500 
28.750000 1.789474 9.737500 
28.750000 1.894737 9.737500 
28.750000 2.000000 9.737500 
28.750000 2.105263 9.737500 
29.000000 0.000000 9.730000 
29.000000 0.105263 9.730000 
29.000000 0.210526 9.730000 
29.000000 0.315789 9.730000 
29.000000 0.421053 9.730000 
29.000000 0.526316 9.730000 
29.000000 0.631579 9.730000 
29.000000 0.736842 9.730000 
29.000000 0.842105 9.730000 
29.000000 0.947368 9.730000 
29.000000 1.052632 9.730000 
29.000000 1.157895 9.730000 
29.000000 1.263158 9.730000 
29.000000 1.368421 9.730000 
29.000000 1.473684 9.730000 
29.000000 1.578947 9.730000 
29.000000 1.684211 9.730000 
29.000000 1.789474 9.730000 
29.000000 1.894737 9.730000 
29.000000 2.000000 9.730000 
29.000000 2.105263 9.730000 
29.250000 0.000000 9.722500 
29.250000 0.105263 9.722500 
29.250000 0.210526 9.722500 
29.250000 0.315789 9.722500 
29.250000 0.421053 9.722500 
29.250000 0.526316 9.722500 
29.250000 0.631579 9.722500 
29.250000 0.736842 9.722500 
29.250000 0.842105 9.722500 
29.250000 0.947368 9.722500 
29.250000 1.052632 9.722500 
29.250000 1.157895 9.722500 
29.250000 1.263158 9.722500 
29.250000 1.368421 9.722500 
29.250000 1.473684 9.722500 
29.250000 1.578947 9.722500 
29.250000 1.684211 9.722500 
29.250000 1.789474 9.722500 
29.250000 1.894737 9.722500 
29.250000 2.000000 9.722500 
29.250000 2.105263 9.722500 
29.500000 0.000000 9.715000 
29.500000 0.105263 9.715000 
29.500000 0.210526 9.715000 
29.500000 0.315789 9.715000 
29.500000 0.421053 9.715000 
29.500000 0.526316 9.715000 
29.500000 0.631579 9.715000 
29.500000 0.736842 9.715000 
29.500000 0.842105 9.715000 
29.500000 0.947368 9.715000 
29.500000 1.052632 9.715000 
29.500000 1.157895 9.715000 
29.500000 1.263158 9.715000 
29.500000 1.368421 9.715000 
29.500000 1.473684 9.715000 
29.500000 1.578947 9.715000 
29.500000 1.684211 9.715000 
29.500000 1.789474 9.715000 
29.500000 1.894737 9.715000 
29.500000 2.000000 9.715000 
29.500000 2.105263 9.715000 
29.750000 0.000000 9.707500 
29.750000 0.105263 9.707500 
29.750000 0.210526 9.707500 
29.750000 0.315789 9.707500 
29.750000 0.421053 9.707500 
29.750000 0.526316 9.707500 
29.750000 0.631579 9.707500 
29.750000 0.736842 9.707500 
29.750000 0.842105 9.707500 
29.750000 0.947368 9.707500 
29.750000 1.052632 9.707500 
29.750000 1.157895 9.707500 
29.750000 1.263158 9.707500 
29.750000 1.368421 9.707500 
29.750000 1.473684 9.707500 
29.750000 1.578947 9.707500 
29.750000 1.684211 9.707500 
29.750000 1.789474 9.707500 
29.750000 1.894737 9.707500 
29.750000 2.000000 9.707500 
29.750000 2.105263 9.707500 
30.000000 0.000000 9.700000 
30.000000 0.105263 9.700000 
30.000000 0.210526 9.700000 
30.000000 0.315789 9.700000 
30.000000 0.421053 9.700000 
30.000000 0.526316 9.700000 
30.000000 0.631579 9.700000 
30.000000 0.736842 9.700000 
30.000000 0.842105 9.700000 
30.000000 0.947368 9.700000 
30.000000 1.052632 9.700000 
30.000000 1.157895 9.700000 
30.000000 1.263158 9.700000 
30.000000 1.368421 9.700000 
30.000000 1.473684 9.700000 
30.000000 1.578947 9.700000 
30.000000 1.684211 9.700000 
30.000000 1.789474 9.700000 
30.000000 1.894737 9.700000 
30.000000 2.000000 9.700000 
30.000000 2.105263 9.700000 
30.250000 0.000000 9.700000 
30.250000 0.105263 9.700000 
30.250000 0.210526 9.700000 
30.250000 0.315789 9.700000 
30.250000 0.421053 9.700000 
30.250000 0.526316 9.700000 
30.250000 0.631579 9.700000 
30.250000 0.736842 9.700000 
30.250000 0.842105 9.700000 
30.250000 0.947368 9.700000 
30.250000 1.052632 9.700000 
30.250000 1.157895 9.700000 
30.250000 1.263158 9.700000 
30.250000 1.368421 9.700000 
30.250000 1.473684 9.700000 
30.250000 1.578947 9.700000 
30.250000 1.684211 9.700000 
30.250000 1.789474 9.700000 
30.250000 1.894737 9.700000 
30.250000 2.000000 9.700000 
30.250000 2.105263 9.700000 
30.500000 0.000000 9.700000 
30.500000 0.105263 9.700000 
30.500000 0.210526 9.700000 
30.500000 0.315789 9.700000 
30.500000 0.421053 9.700000 
30.500000 0.526316 9.700000 
30.500000 0.631579 9.700000 
30.500000 0.736842 9.700000 
30.500000 0.842105 9.700000 
30.500000 0.947368 9.700000 
30.500000 1.052632 9.700000 
30.500000 1.157895 9.700000 
30.500000 1.263158 9.700000 
30.500000 1.368421 9.700000 
30.500000 1.473684 9.700000 
30.500000 1.578947 9.700000 
30.500000 1.684211 9.700000 
30.500000 1.789474 9.700000 
30.500000 1.894737 9.700000 
30.500000 2.000000 9.700000 
30.500000 2.105263 9.700000 
30.750000 0.000000 9.700000 
30.750000 0.105263 9.700000 
30.750000 0.210526 9.700000 
30.750000 0.315789 9.700000 
30.750000 0.421053 9.700000 
30.750000 0.526316 9.700000 
30.750000 0.631579 9.700000 
30.750000 0.736842 9.700000 
30.750000 0.842105 9.700000 
30.750000 0.947368 9.700000 
30.750000 1.052632 9.700000 
30.750000 1.157895 9.700000 
30.750000 1.263158 9.700000 
30.750000 1.368421 9.700000 
30.750000 1.473684 9.700000 
30.750000 1.578947 9.700000 
30.750000 1.684211 9.700000 
30.750000 1.789474 9.700000 
30.750000 1.894737 9.700000 
30.750000 2.000000 9.700000 
30.750000 2.105263 9.700000 
31.000000 0.000000 9.700000 
31.000000 0.105263 9.700000 
31.000000 0.210526 9.700000 
31.000000 0.315789 9.700000 
31.000000 0.421053 9.700000 
31.000000 0.526316 9.700000 
31.000000 0.631579 9.700000 
31.000000 0.736842 9.700000 
31.000000 0.842105 9.700000 
31.000000 0.947368 9.700000 
31.000000 1.052632 9.700000 
31.000000 1.157895 9.700000 
31.000000 1.263158 9.700000 
31.000000 1.368421 9.700000 
31.000000 1.473684 9.700000 
31.000000 1.578947 9.700000 
31.000000 1.684211 9.700000 
31.000000 1.789474 9.700000 
31.000000 1.894737 9.700000 
31.000000 2.000000 9.700000 
31.000000 2.105263 9.700000 
31.250000 0.000000 9.700000 
31.250000 0.105263 9.700000 
31.250000 0.210526 9.700000 
31.250000 0.315789 9.700000 
31.250000 0.421053 9.700000 
31.250000 0.526316 9.700000 
31.250000 0.631579 9.700000 
31.250000 0.736842 9.700000 
31.250000 0.842105 9.700000 
31.250000 0.947368 9.700000 
31.250000 1.052632 9.700000 
31.250000 1.157895 9.700000 
31.250000 1.263158 9.700000 
31.250000 1.368421 9.700000 
31.250000 1.473684 9.700000 
31.250000 1.578947 9.700000 
31.250000 1.684211 9.700000 
31.250000 1.789474 9.700000 
31.250000 1.894737 9.700000 
31.250000 2.000000 9.700000 
31.250000 2.105263 9.700000 
31.500000 0.000000 9.700000 
31.500000 0.105263 9.700000 
31.500000 0.210526 9.700000 
31.500000 0.315789 9.700000 
31.500000 0.421053 9.700000 
31.500000 0.526316 9.700000 
31.500000 0.631579 9.700000 
31.500000 0.736842 9.700000 
31.500000 0.842105 9.700000 
31.500000 0.947368 9.700000 
31.500000 1.052632 9.700000 
31.500000 1.157895 9.700000 
31.500000 1.263158 9.700000 
31.500000 1.368421 9.700000 
31.500000 1.473684 9.700000 
31.500000 1.578947 9.700000 
31.500000 1.684211 9.700000 
31.500000 1.789474 9.700000 
31.500000 1.894737 9.700000 
31.500000 2.000000 9.700000 
31.500000 2.105263 9.700000 
31.750000 0.000000 9.700000 
31.750000 0.105263 9.700000 
31.750000 0.210526 9.700000 
31.750000 0.315789 9.700000 
31.750000 0.421053 9.700000 
31.750000 0.526316 9.700000 
31.750000 0.631579 9.700000 
31.750000 0.736842 9.700000 
31.750000 0.842105 9.700000 
31.750000 0.947368 9.700000 
31.750000 1.052632 9.700000 
31.750000 1.157895 9.700000 
31.750000 1.263158 9.700000 
31.750000 1.368421 9.700000 
31.750000 1.473684 9.700000 
31.750000 1.578947 9.700000 
31.750000 1.684211 9.700000 
31.750000 1.789474 9.700000 
31.750000 1.894737 9.700000 
31.750000 2.000000 9.700000 
31.750000 2.105263 9.700000 
32.000000 0.000000 9.700000 
32.000000 0.105263 9.700000 
32.000000 0.210526 9.700000 
32.000000 0.315789 9.700000 
32.000000 0.421053 9.700000 
32.000000 0.526316 9.700000 
32.000000 0.631579 9.700000 
32.000000 0.736842 9.700000 
32.000000 0.842105 9.700000 
32.000000 0.947368 9.700000 
32.000000 1.052632 9.700000 
32.000000 1.157895 9.700000 
32.000000 1.263158 9.700000 
32.000000 1.368421 9.700000 
32.000000 1.473684 9.700000 
32.000000 1.578947 9.700000 
32.000000 1.684211 9.700000 
32.000000 1.789474 9.700000 
32.000000 1.894737 9.700000 
32.000000 2.000000 9.700000 
32.000000 2.105263 9.700000 
32.250000 0.000000 9.700000 
32.250000 0.105263 9.700000 
32.250000 0.210526 9.700000 
32.250000 0.315789 9.700000 
32.250000 0.421053 9.700000 
32.250000 0.526316 9.700000 
32.250000 0.631579 9.700000 
32.250000 0.736842 9.700000 
32.250000 0.842105 9.700000 
32.250000 0.947368 9.700000 
32.250000 1.052632 9.700000 
32.250000 1.157895 9.700000 
32.250000 1.263158 9.700000 
32.250000 1.368421 9.700000 
32.250000 1.473684 9.700000 
32.250000 1.578947 9.700000 
32.250000 1.684211 9.700000 
32.250000 1.789474 9.700000 
32.250000 1.894737 9.700000 
32.250000 2.000000 9.700000 
32.250000 2.105263 9.700000 
32.500000 0.000000 9.700000 
32.500000 0.105263 9.700000 
32.500000 0.210526 9.700000 
32.500000 0.315789 9.700000 
32.500000 0.421053 9.700000 
32.500000 0.526316 9.700000 
32.500000 0.631579 9.700000 
32.500000 0.736842 9.700000 
32.500000 0.842105 9.700000 
32.500000 0.947368 9.700000 
32.500000 1.052632 9.700000 
32.500000 1.157895 9.700000 
32.500000 1.263158 9.700000 
32.500000 1.368421 9.700000 
32.500000 1.473684 9.700000 
32.500000 1.578947 9.700000 
32.500000 1.684211 9.700000 
32.500000 1.789474 9.700000 
32.500000 1.894737 9.700000 
32.500000 2.000000 9.700000 
32.500000 2.105263 9.700000 
32.750000 0.000000 9.700000 
32.750000 0.105263 9.700000 
32.750000 0.210526 9.700000 
32.750000 0.315789 9.700000 
32.750000 0.421053 9.700000 
32.750000 0.526316 9.700000 
32.750000 0.631579 9.700000 
32.750000 0.736842 9.700000 
32.750000 0.842105 9.700000 
32.750000 0.947368 9.700000 
32.750000 1.052632 9.700000 
32.750000 1.157895 9.700000 
32.750000 1.263158 9.700000 
32.750000 1.368421 9.700000 
32.750000 1.473684 9.700000 
32.750000 1.578947 9.700000 
32.750000 1.684211 9.700000 
32.750000 1.789474 9.700000 
32.750000 1.894737 9.700000 
32.750000 2.000000 9.700000 
32.750000 2.105263 9.700000 
33.000000 0.000000 9.700000 
33.000000 0.105263 9.700000 
33.000000 0.210526 9.700000 
33.000000 0.315789 9.700000 
33.000000 0.421053 9.700000 
33.000000 0.526316 9.700000 
33.000000 0.631579 9.700000 
33.000000 0.736842 9.700000 
33.000000 0.842105 9.700000 
33.000000 0.947368 9.700000 
33.000000 1.052632 9.700000 
33.000000 1.157895 9.700000 
33.000000 1.263158 9.700000 
33.000000 1.368421 9.700000 
33.000000 1.473684 9.700000 
33.000000 1.578947 9.700000 
33.000000 1.684211 9.700000 
33.000000 1.789474 9.700000 
33.000000 1.894737 9.700000 
33.000000 2.000000 9.700000 
33.000000 2.105263 9.700000 
33.250000 0.000000 9.700000 
33.250000 0.105263 9.700000 
33.250000 0.210526 9.700000 
33.250000 0.315789 9.700000 
33.250000 0.421053 9.700000 
33.250000 0.526316 9.700000 
33.250000 0.631579 9.700000 
33.250000 0.736842 9.700000 
33.250000 0.842105 9.700000 
33.250000 0.947368 9.700000 
33.250000 1.052632 9.700000 
33.250000 1.157895 9.700000 
33.250000 1.263158 9.700000 
33.250000 1.368421 9.700000 
33.250000 1.473684 9.700000 
33.250000 1.578947 9.700000 
33.250000 1.684211 9.700000 
33.250000 1.789474 9.700000 
33.250000 1.894737 9.700000 
33.250000 2.000000 9.700000 
33.250000 2.105263 9.700000 
33.500000 0.000000 9.700000 
33.500000 0.105263 9.700000 
33.500000 0.210526 9.700000 
33.500000 0.315789 9.700000 
33.500000 0.421053 9.700000 
33.500000 0.526316 9.700000 
33.500000 0.631579 9.700000 
33.500000 0.736842 9.700000 
33.500000 0.842105 9.700000 
33.500000 0.947368 9.700000 
33.500000 1.052632 9.700000 
33.500000 1.157895 9.700000 
33.500000 1.263158 9.700000 
33.500000 1.368421 9.700000 
33.500000 1.473684 9.700000 
33.500000 1.578947 9.700000 
33.500000 1.684211 9.700000 
33.500000 1.789474 9.700000 
33.500000 1.894737 9.700000 
33.500000 2.000000 9.700000 
33.500000 2.105263 9.700000 
33.750000 0.000000 9.700000 
33.750000 0.105263 9.700000 
33.750000 0.210526 9.700000 
33.750000 0.315789 9.700000 
33.750000 0.421053 9.700000 
33.750000 0.526316 9.700000 
33.750000 0.631579 9.700000 
33.750000 0.736842 9.700000 
33.750000 0.842105 9.700000 
33.750000 0.947368 9.700000 
33.750000 1.052632 9.700000 
33.750000 1.157895 9.700000 
33.750000 1.263158 9.700000 
33.750000 1.368421 9.700000 
33.750000 1.473684 9.700000 
33.750000 1.578947 9.700000 
33.750000 1.684211 9.700000 
33.750000 1.789474 9.700000 
33.750000 1.894737 9.700000 
33.750000 2.000000 9.700000 
33.750000 2.105263 9.700000 
34.000000 0.000000 9.700000 
34.000000 0.105263 9.700000 
34.000000 0.210526 9.700000 
34.000000 0.315789 9.700000 
34.000000 0.421053 9.700000 
34.000000 0.526316 9.700000 
34.000000 0.631579 9.700000 
34.000000 0.736842 9.700000 
34.000000 0.842105 9.700000 
34.000000 0.947368 9.700000 
34.000000 1.052632 9.700000 
34.000000 1.157895 9.700000 
34.000000 1.263158 9.700000 
34.000000 1.368421 9.700000 
34.000000 1.473684 9.700000 
34.000000 1.578947 9.700000 
34.000000 1.684211 9.700000 
34.000000 1.789474 9.700000 
34.000000 1.894737 9.700000 
34.000000 2.000000 9.700000 
34.000000 2.105263 9.700000 
34.250000 0.000000 9.700000 
34.250000 0.105263 9.700000 
34.250000 0.210526 9.700000 
34.250000 0.315789 9.700000 
34.250000 0.421053 9.700000 
34.250000 0.526316 9.700000 
34.250000 0.631579 9.700000 
34.250000 0.736842 9.700000 
34.250000 0.842105 9.700000 
34.250000 0.947368 9.700000 
34.250000 1.052632 9.700000 
34.250000 1.157895 9.700000 
34.250000 1.263158 9.700000 
34.250000 1.368421 9.700000 
34.250000 1.473684 9.700000 
34.250000 1.578947 9.700000 
34.250000 1.684211 9.700000 
34.250000 1.789474 9.700000 
34.250000 1.894737 9.700000 
34.250000 2.000000 9.700000 
34.250000 2.105263 9.700000 
34.500000 0.000000 9.700000 
34.500000 0.105263 9.700000 
34.500000 0.210526 9.700000 
34.500000 0.315789 9.700000 
34.500000 0.421053 9.700000 
34.500000 0.526316 9.700000 
34.500000 0.631579 9.700000 
34.500000 0.736842 9.700000 
34.500000 0.842105 9.700000 
34.500000 0.947368 9.700000 
34.500000 1.052632 9.700000 
34.500000 1.157895 9.700000 
34.500000 1.263158 9.700000 
34.500000 1.368421 9.700000 
34.500000 1.473684 9.700000 
34.500000 1.578947 9.700000 
34.500000 1.684211 9.700000 
34.500000 1.789474 9.700000 
34.500000 1.894737 9.700000 
34.500000 2.000000 9.700000 
34.500000 2.105263 9.700000 
34.750000 0.000000 9.700000 
34.750000 0.105263 9.700000 
34.750000 0.210526 9.700000 
34.750000 0.315789 9.700000 
34.750000 0.421053 9.700000 
34.750000 0.526316 9.700000 
34.750000 0.631579 9.700000 
34.750000 0.736842 9.700000 
34.750000 0.842105 9.700000 
34.750000 0.947368 9.700000 
34.750000 1.052632 9.700000 
34.750000 1.157895 9.700000 
34.750000 1.263158 9.700000 
34.750000 1.368421 9.700000 
34.750000 1.473684 9.700000 
34.750000 1.578947 9.700000 
34.750000 1.684211 9.700000 
34.750000 1.789474 9.700000 
34.750000 1.894737 9.700000 
34.750000 2.000000 9.700000 
34.750000 2.105263 9.700000 
35.000000 0.000000 9.700000 
35.000000 0.105263 9.700000 
35.000000 0.210526 9.700000 
35.000000 0.315789 9.700000 
35.000000 0.421053 9.700000 
35.000000 0.526316 9.700000 
35.000000 0.631579 9.700000 
35.000000 0.736842 9.700000 
35.000000 0.842105 9.700000 
35.000000 0.947368 9.700000 
35.000000 1.052632 9.700000 
35.000000 1.157895 9.700000 
35.000000 1.263158 9.700000 
35.000000 1.368421 9.700000 
35.000000 1.473684 9.700000 
35.000000 1.578947 9.700000 
35.000000 1.684211 9.700000 
35.000000 1.789474 9.700000 
35.000000 1.894737 9.700000 
35.000000 2.000000 9.700000 
35.000000 2.105263 9.700000 
35.250000 0.000000 9.700000 
35.250000 0.105263 9.700000 
35.250000 0.210526 9.700000 
35.250000 0.315789 9.700000 
35.250000 0.421053 9.700000 
35.250000 0.526316 9.700000 
35.250000 0.631579 9.700000 
35.250000 0.736842 9.700000 
35.250000 0.842105 9.700000 
35.250000 0.947368 9.700000 
35.250000 1.052632 9.700000 
35.250000 1.157895 9.700000 
35.250000 1.263158 9.700000 
35.250000 1.368421 9.700000 
35.250000 1.473684 9.700000 
35.250000 1.578947 9.700000 
35.250000 1.684211 9.700000 
35.250000 1.789474 9.700000 
35.250000 1.894737 9.700000 
35.250000 2.000000 9.700000 
35.250000 2.105263 9.700000 
35.500000 0.000000 9.700000 
35.500000 0.105263 9.700000 
35.500000 0.210526 9.700000 
35.500000 0.315789 9.700000 
35.500000 0.421053 9.700000 
35.500000 0.526316 9.700000 
35.500000 0.631579 9.700000 
35.500000 0.736842 9.700000 
35.500000 0.842105 9.700000 
35.500000 0.947368 9.700000 
35.500000 1.052632 9.700000 
35.500000 1.157895 9.700000 
35.500000 1.263158 9.700000 
35.500000 1.368421 9.700000 
35.500000 1.473684 9.700000 
35.500000 1.578947 9.700000 
35.500000 1.684211 9.700000 
35.500000 1.789474 9.700000 
35.500000 1.894737 9.700000 
35.500000 2.000000 9.700000 
35.500000 2.105263 9.700000 
35.750000 0.000000 9.700000 
35.750000 0.105263 9.700000 
35.750000 0.210526 9.700000 
35.750000 0.315789 9.700000 
35.750000 0.421053 9.700000 
35.750000 0.526316 9.700000 
35.750000 0.631579 9.700000 
35.750000 0.736842 9.700000 
35.750000 0.842105 9.700000 
35.750000 0.947368 9.700000 
35.750000 1.052632 9.700000 
35.750000 1.157895 9.700000 
35.750000 1.263158 9.700000 
35.750000 1.368421 9.700000 
35.750000 1.473684 9.700000 
35.750000 1.578947 9.700000 
35.750000 1.684211 9.700000 
35.750000 1.789474 9.700000 
35.750000 1.894737 9.700000 
35.750000 2.000000 9.700000 
35.750000 2.105263 9.700000 
36.000000 0.000000 9.700000 
36.000000 0.105263 9.700000 
36.000000 0.210526 9.700000 
36.000000 0.315789 9.700000 
36.000000 0.421053 9.700000 
36.000000 0.526316 9.700000 
36.000000 0.631579 9.700000 
36.000000 0.736842 9.700000 
36.000000 0.842105 9.700000 
36.000000 0.947368 9.700000 
36.000000 1.052632 9.700000 
36.000000 1.157895 9.700000 
36.000000 1.263158 9.700000 
36.000000 1.368421 9.700000 
36.000000 1.473684 9.700000 
36.000000 1.578947 9.700000 
36.000000 1.684211 9.700000 
36.000000 1.789474 9.700000 
36.000000 1.894737 9.700000 
36.000000 2.000000 9.700000 
36.000000 2.105263 9.700000 
36.250000 0.000000 9.700000 
36.250000 0.105263 9.700000 
36.250000 0.210526 9.700000 
36.250000 0.315789 9.700000 
36.250000 0.421053 9.700000 
36.250000 0.526316 9.700000 
36.250000 0.631579 9.700000 
36.250000 0.736842 9.700000 
36.250000 0.842105 9.700000 
36.250000 0.947368 9.700000 
36.250000 1.052632 9.700000 
36.250000 1.157895 9.700000 
36.250000 1.263158 9.700000 
36.250000 1.368421 9.700000 
36.250000 1.473684 9.700000 
36.250000 1.578947 9.700000 
36.250000 1.684211 9.700000 
36.250000 1.789474 9.700000 
36.250000 1.894737 9.700000 
36.250000 2.000000 9.700000 
36.250000 2.105263 9.700000 
36.500000 0.000000 9.700000 
36.500000 0.105263 9.700000 
36.500000 0.210526 9.700000 
36.500000 0.315789 9.700000 
36.500000 0.421053 9.700000 
36.500000 0.526316 9.700000 
36.500000 0.631579 9.700000 
36.500000 0.736842 9.700000 
36.500000 0.842105 9.700000 
36.500000 0.947368 9.700000 
36.500000 1.052632 9.700000 
36.500000 1.157895 9.700000 
36.500000 1.263158 9.700000 
36.500000 1.368421 9.700000 
36.500000 1.473684 9.700000 
36.500000 1.578947 9.700000 
36.500000 1.684211 9.700000 
36.500000 1.789474 9.700000 
36.500000 1.894737 9.700000 
36.500000 2.000000 9.700000 
36.500000 2.105263 9.700000 
36.750000 0.000000 9.700000 
36.750000 0.105263 9.700000 
36.750000 0.210526 9.700000 
36.750000 0.315789 9.700000 
36.750000 0.421053 9.700000 
36.750000 0.526316 9.700000 
36.750000 0.631579 9.700000 
36.750000 0.736842 9.700000 
36.750000 0.842105 9.700000 
36.750000 0.947368 9.700000 
36.750000 1.052632 9.700000 
36.750000 1.157895 9.700000 
36.750000 1.263158 9.700000 
36.750000 1.368421 9.700000 
36.750000 1.473684 9.700000 
36.750000 1.578947 9.700000 
36.750000 1.684211 9.700000 
36.750000 1.789474 9.700000 
36.750000 1.894737 9.700000 
36.750000 2.000000 9.700000 
36.750000 2.105263 9.700000 
37.000000 0.000000 9.700000 
37.000000 0.105263 9.700000 
37.000000 0.210526 9.700000 
37.000000 0.315789 9.700000 
37.000000 0.421053 9.700000 
37.000000 0.526316 9.700000 
37.000000 0.631579 9.700000 
37.000000 0.736842 9.700000 
37.000000 0.842105 9.700000 
37.000000 0.947368 9.700000 
37.000000 1.052632 9.700000 
37.000000 1.157895 9.700000 
37.000000 1.263158 9.700000 
37.000000 1.368421 9.700000 
37.000000 1.473684 9.700000 
37.000000 1.578947 9.700000 
37.000000 1.684211 9.700000 
37.000000 1.789474 9.700000 
37.000000 1.894737 9.700000 
37.000000 2.000000 9.700000 
37.000000 2.105263 9.700000 
37.250000 0.000000 9.700000 
37.250000 0.105263 9.700000 
37.250000 0.210526 9.700000 
37.250000 0.315789 9.700000 
37.250000 0.421053 9.700000 
37.250000 0.526316 9.700000 
37.250000 0.631579 9.700000 
37.250000 0.736842 9.700000 
37.250000 0.842105 9.700000 
37.250000 0.947368 9.700000 
37.250000 1.052632 9.700000 
37.250000 1.157895 9.700000 
37.250000 1.263158 9.700000 
37.250000 1.368421 9.700000 
37.250000 1.473684 9.700000 
37.250000 1.578947 9.700000 
37.250000 1.684211 9.700000 
37.250000 1.789474 9.700000 
37.250000 1.894737 9.700000 
37.250000 2.000000 9.700000 
37.250000 2.105263 9.700000 
37.500000 0.000000 9.700000 
37.500000 0.105263 9.700000 
37.500000 0.210526 9.700000 
37.500000 0.315789 9.700000 
37.500000 0.421053 9.700000 
37.500000 0.526316 9.700000 
37.500000 0.631579 9.700000 
37.500000 0.736842 9.700000 
37.500000 0.842105 9.700000 
37.500000 0.947368 9.700000 
37.500000 1.052632 9.700000 
37.500000 1.157895 9.700000 
37.500000 1.263158 9.700000 
37.500000 1.368421 9.700000 
37.500000 1.473684 9.700000 
37.500000 1.578947 9.700000 
37.500000 1.684211 9.700000 
37.500000 1.789474 9.700000 
37.500000 1.894737 9.700000 
37.500000 2.000000 9.700000 
37.500000 2.105263 9.700000 
37.750000 0.000000 9.700000 
37.750000 0.105263 9.700000 
37.750000 0.210526 9.700000 
37.750000 0.315789 9.700000 
37.750000 0.421053 9.700000 
37.750000 0.526316 9.700000 
37.750000 0.631579 9.700000 
37.750000 0.736842 9.700000 
37.750000 0.842105 9.700000 
37.750000 0.947368 9.700000 
37.750000 1.052632 9.700000 
37.750000 1.157895 9.700000 
37.750000 1.263158 9.700000 
37.750000 1.368421 9.700000 
37.750000 1.473684 9.700000 
37.750000 1.578947 9.700000 
37.750000 1.684211 9.700000 
37.750000 1.789474 9.700000 
37.750000 1.894737 9.700000 
37.750000 2.000000 9.700000 
37.750000 2.105263 9.700000 
38.000000 0.000000 9.700000 
38.000000 0.105263 9.700000 
38.000000 0.210526 9.700000 
38.000000 0.315789 9.700000 
38.000000 0.421053 9.700000 
38.000000 0.526316 9.700000 
38.000000 0.631579 9.700000 
38.000000 0.736842 9.700000 
38.000000 0.842105 9.700000 
38.000000 0.947368 9.700000 
38.000000 1.052632 9.700000 
38.000000 1.157895 9.700000 
38.000000 1.263158 9.700000 
38.000000 1.368421 9.700000 
38.000000 1.473684 9.700000 
38.000000 1.578947 9.700000 
38.000000 1.684211 9.700000 
38.000000 1.789474 9.700000 
38.000000 1.894737 9.700000 
38.000000 2.000000 9.700000 
38.000000 2.105263 9.700000 
38.250000 0.000000 9.700000 
38.250000 0.105263 9.700000 
38.250000 0.210526 9.700000 
38.250000 0.315789 9.700000 
38.250000 0.421053 9.700000 
38.250000 0.526316 9.700000 
38.250000 0.631579 9.700000 
38.250000 0.736842 9.700000 
38.250000 0.842105 9.700000 
38.250000 0.947368 9.700000 
38.250000 1.052632 9.700000 
38.250000 1.157895 9.700000 
38.250000 1.263158 9.700000 
38.250000 1.368421 9.700000 
38.250000 1.473684 9.700000 
38.250000 1.578947 9.700000 
38.250000 1.684211 9.700000 
38.250000 1.789474 9.700000 
38.250000 1.894737 9.700000 
38.250000 2.000000 9.700000 
38.250000 2.105263 9.700000 
38.500000 0.000000 9.700000 
38.500000 0.105263 9.700000 
38.500000 0.210526 9.700000 
38.500000 0.315789 9.700000 
38.500000 0.421053 9.700000 
38.500000 0.526316 9.700000 
38.500000 0.631579 9.700000 
38.500000 0.736842 9.700000 
38.500000 0.842105 9.700000 
38.500000 0.947368 9.700000 
38.500000 1.052632 9.700000 
38.500000 1.157895 9.700000 
38.500000 1.263158 9.700000 
38.500000 1.368421 9.700000 
38.500000 1.473684 9.700000 
38.500000 1.578947 9.700000 
38.500000 1.684211 9.700000 
38.500000 1.789474 9.700000 
38.500000 1.894737 9.700000 
38.500000 2.000000 9.700000 
38.500000 2.105263 9.700000 
38.750000 0.000000 9.700000 
38.750000 0.105263 9.700000 
38.750000 0.210526 9.700000 
38.750000 0.315789 9.700000 
38.750000 0.421053 9.700000 
38.750000 0.526316 9.700000 
38.750000 0.631579 9.700000 
38.750000 0.736842 9.700000 
38.750000 0.842105 9.700000 
38.750000 0.947368 9.700000 
38.750000 1.052632 9.700000 
38.750000 1.157895 9.700000 
38.750000 1.263158 9.700000 
38.750000 1.368421 9.700000 
38.750000 1.473684 9.700000 
38.750000 1.578947 9.700000 
38.750000 1.684211 9.700000 
38.750000 1.789474 9.700000 
38.750000 1.894737 9.700000 
38.750000 2.000000 9.700000 
38.750000 2.105263 9.700000 
39.000000 0.000000 9.700000 
39.000000 0.105263 9.700000 
39.000000 0.210526 9.700000 
39.000000 0.315789 9.700000 
39.000000 0.421053 9.700000 
39.000000 0.526316 9.700000 
39.000000 0.631579 9.700000 
39.000000 0.736842 9.700000 
39.000000 0.842105 9.700000 
39.000000 0.947368 9.700000 
39.000000 1.052632 9.700000 
39.000000 1.157895 9.700000 
39.000000 1.263158 9.700000 
39.000000 1.368421 9.700000 
39.000000 1.473684 9.700000 
39.000000 1.578947 9.700000 
39.000000 1.684211 9.700000 
39.000000 1.789474 9.700000 
39.000000 1.894737 9.700000 
39.000000 2.000000 9.700000 
39.000000 2.105263 9.700000 
39.250000 0.000000 9.700000 
39.250000 0.105263 9.700000 
39.250000 0.210526 9.700000 
39.250000 0.315789 9.700000 
39.250000 0.421053 9.700000 
39.250000 0.526316 9.700000 
39.250000 0.631579 9.700000 
39.250000 0.736842 9.700000 
39.250000 0.842105 9.700000 
39.250000 0.947368 9.700000 
39.250000 1.052632 9.700000 
39.250000 1.157895 9.700000 
39.250000 1.263158 9.700000 
39.250000 1.368421 9.700000 
39.250000 1.473684 9.700000 
39.250000 1.578947 9.700000 
39.250000 1.684211 9.700000 
39.250000 1.789474 9.700000 
39.250000 1.894737 9.700000 
39.250000 2.000000 9.700000 
39.250000 2.105263 9.700000 
39.500000 0.000000 9.700000 
39.500000 0.105263 9.700000 
39.500000 0.210526 9.700000 
39.500000 0.315789 9.700000 
39.500000 0.421053 9.700000 
39.500000 0.526316 9.700000 
39.500000 0.631579 9.700000 
39.500000 0.736842 9.700000 
