5.475285156250000000e+03 4.596925781250000000e+03 5.000000000000000000e+01
4.236382812500000000e+03 4.362031250000000000e+03 4.837411499023437500e+01
4.131332031250000000e+03 4.411234375000000000e+03 4.940982055664062500e+01
5.472761718750000000e+03 4.427917968750000000e+03 4.004521179199218750e+01
5.511425781250000000e+03 3.954545898437500000e+03 8.431401062011718750e+01
2.466879882812500000e+03 5.518773437500000000e+03 7.298658752441406250e+01
5.402070312500000000e+03 3.999661621093750000e+03 9.069111633300781250e+01
5.415035156250000000e+03 4.037784179687500000e+03 7.482342529296875000e+01
5.490250000000000000e+03 4.515550781250000000e+03 4.643778991699218750e+01
4.472074218750000000e+03 4.244003906250000000e+03 5.074981689453125000e+01
1.783169921875000000e+03 5.615246093750000000e+03 7.410913085937500000e+01
1.311919531250000000e+04 2.103229248046875000e+03 7.255834579467773438e+00
1.196901562500000000e+04 2.540597900390625000e+03 2.034568786621093750e+01
5.221289062500000000e+03 3.992546142578125000e+03 6.954811096191406250e+01
5.545644531250000000e+03 4.581042968750000000e+03 4.068089294433593750e+01
2.146857910156250000e+03 5.536203125000000000e+03 7.312081909179687500e+01
1.352274218750000000e+04 2.161756835937500000e+03 1.756213188171386719e+00
1.349802343750000000e+04 2.149810302734375000e+03 5.280767440795898438e+00
4.319386718750000000e+03 4.337781250000000000e+03 5.453279113769531250e+01
1.347833593750000000e+04 1.972087402343750000e+03 3.590446472167968750e+00
5.230363281250000000e+03 4.024271972656250000e+03 5.928771972656250000e+01
5.601195312500000000e+03 4.649644531250000000e+03 4.667390441894531250e+01
5.572898437500000000e+03 4.648714843750000000e+03 4.074079895019531250e+01
4.191898437500000000e+03 4.402730468750000000e+03 4.789869689941406250e+01
2.087342529296875000e+03 5.551570312500000000e+03 7.381242370605468750e+01
5.500523437500000000e+03 4.055986328125000000e+03 6.539108276367187500e+01
1.292631640625000000e+04 2.502497070312500000e+03 6.571638107299804688e+00
5.257121093750000000e+03 3.991310302734375000e+03 7.631748962402343750e+01
3.168232421875000000e+03 5.231511718750000000e+03 6.472506713867187500e+01
1.257507812500000000e+04 2.630795898437500000e+03 8.022211074829101562e+00
3.848194091796875000e+03 4.620816406250000000e+03 5.195297241210937500e+01
1.242182812500000000e+04 2.700880371093750000e+03 7.773797035217285156e+00
5.481187500000000000e+03 4.123941406250000000e+03 4.480632019042968750e+01
5.389972656250000000e+03 4.382246093750000000e+03 6.260409545898437500e+01
1.608053955078125000e+03 5.683324218750000000e+03 7.565701293945312500e+01
5.382417968750000000e+03 4.109609375000000000e+03 4.179821777343750000e+01
5.328617187500000000e+03 4.024149658203125000e+03 7.507046508789062500e+01
5.404921875000000000e+03 4.119750000000000000e+03 3.988543701171875000e+01
5.455226562500000000e+03 4.491644531250000000e+03 4.014125061035156250e+01
5.379027343750000000e+03 4.141656250000000000e+03 3.801272583007812500e+01
1.191289843750000000e+04 2.777656005859375000e+03 5.230512619018554688e+00
5.300203125000000000e+03 3.985806396484375000e+03 8.681745910644531250e+01
5.400371093750000000e+03 4.405835937500000000e+03 5.557746887207031250e+01
4.415566406250000000e+03 4.268664062500000000e+03 4.641905212402343750e+01
5.231066406250000000e+03 3.967321289062500000e+03 8.199890136718750000e+01
5.453839843750000000e+03 4.455128906250000000e+03 4.000000000000000000e+01
5.173144531250000000e+03 4.039798339843750000e+03 4.491795349121093750e+01
5.489375000000000000e+03 4.086277099609375000e+03 5.535894775390625000e+01
5.170410156250000000e+03 4.025503906250000000e+03 4.928964233398437500e+01
5.342316406250000000e+03 4.100851562500000000e+03 4.309516906738281250e+01
2.718246826171875000e+03 5.492628906250000000e+03 6.912712097167968750e+01
5.185472656250000000e+03 3.959591796875000000e+03 8.024833679199218750e+01
1.155079687500000000e+04 2.655903076171875000e+03 1.479743099212646484e+01
1.211854687500000000e+04 2.717639892578125000e+03 8.797009468078613281e+00
1.166975781250000000e+04 2.680427246093750000e+03 1.419582748413085938e+01
5.285320312500000000e+03 4.128566406250000000e+03 3.783264160156250000e+01
1.388953857421875000e+03 5.680632812500000000e+03 8.008206176757812500e+01
1.819523925781250000e+03 5.620703125000000000e+03 7.390959167480468750e+01
1.316306250000000000e+04 2.320754394531250000e+03 6.083950042724609375e+00
2.417658447265625000e+03 5.435804687500000000e+03 7.084016418457031250e+01
1.353112109375000000e+04 1.947831054687500000e+03 3.831542968750000000e+00
2.285699707031250000e+03 5.482687500000000000e+03 7.174644470214843750e+01
1.879039306640625000e+03 5.605339843750000000e+03 7.453562927246093750e+01
1.348925390625000000e+04 2.089746093750000000e+03 5.119961738586425781e+00
5.447429687500000000e+03 4.134523437500000000e+03 3.962855529785156250e+01
5.337937500000000000e+03 4.136347656250000000e+03 3.804391479492187500e+01
1.351385546875000000e+04 2.199041259765625000e+03 1.903810501098632812e-01
5.549414062500000000e+03 4.198257812500000000e+03 4.302284240722656250e+01
5.173183593750000000e+03 3.999461425781250000e+03 6.162252807617187500e+01
1.353287109375000000e+04 1.901360839843750000e+03 4.909896850585937500e+00
5.197312500000000000e+03 4.020611328125000000e+03 5.476805114746093750e+01
5.404613281250000000e+03 4.083149902343750000e+03 5.469306945800781250e+01
2.950139404296875000e+03 5.373773437500000000e+03 6.459927368164062500e+01
5.513726562500000000e+03 4.497902343750000000e+03 4.032810974121093750e+01
2.655492187500000000e+03 5.516207031250000000e+03 6.940802001953125000e+01
3.018489746093750000e+03 5.345687500000000000e+03 6.288340759277343750e+01
2.993806396484375000e+03 5.370085937500000000e+03 6.387789916992187500e+01
5.444097656250000000e+03 4.567339843750000000e+03 4.997473144531250000e+01
2.476911865234375000e+03 5.452230468750000000e+03 7.043347167968750000e+01
3.242815429687500000e+03 5.138152343750000000e+03 5.894465637207031250e+01
5.266398437500000000e+03 4.085378417968750000e+03 4.037936401367187500e+01
2.386327880859375000e+03 5.592652343750000000e+03 7.994657897949218750e+01
3.624329589843750000e+03 4.858398437500000000e+03 5.517207336425781250e+01
5.321527343750000000e+03 4.058204345703125000e+03 5.865209960937500000e+01
2.565792236328125000e+03 5.476875000000000000e+03 6.984161376953125000e+01
5.245218750000000000e+03 4.076002441406250000e+03 4.290397644042968750e+01
1.938554443359375000e+03 5.589976562500000000e+03 7.938787841796875000e+01
5.419617187500000000e+03 4.155738281250000000e+03 3.740463256835937500e+01
3.714638916015625000e+03 4.738628906250000000e+03 5.343473815917968750e+01
5.647035156250000000e+03 4.145632812500000000e+03 5.019107055664062500e+01
1.998069580078125000e+03 5.574613281250000000e+03 7.727734375000000000e+01
1.177255078125000000e+04 2.390701904296875000e+03 2.919770812988281250e+01
1.172886718750000000e+04 2.563669189453125000e+03 1.887266540527343750e+01
3.286586181640625000e+03 5.101562500000000000e+03 5.819511413574218750e+01
3.984506591796875000e+03 4.500039062500000000e+03 5.017604064941406250e+01
1.162819921875000000e+04 2.476788085937500000e+03 2.043014526367187500e+01
5.209746093750000000e+03 4.043106445312500000e+03 4.854570007324218750e+01
5.617265625000000000e+03 4.041087646484375000e+03 8.503532409667968750e+01
5.490843750000000000e+03 4.171589843750000000e+03 3.839793395996093750e+01
5.492738281250000000e+03 4.410890625000000000e+03 4.018869018554687500e+01
5.569851562500000000e+03 4.048514404296875000e+03 8.135282897949218750e+01
1.693220458984375000e+03 5.640996093750000000e+03 7.484861755371093750e+01
5.770726562500000000e+03 4.041964355468750000e+03 7.000000000000000000e+01
5.504105468750000000e+03 4.140753906250000000e+03 4.505671691894531250e+01
3.939069091796875000e+03 4.540296875000000000e+03 5.107791137695312500e+01
5.580632812500000000e+03 4.085864257812500000e+03 7.099365234375000000e+01
3.370444091796875000e+03 5.061277343750000000e+03 5.701589965820312500e+01
1.352603906250000000e+04 2.106540283203125000e+03 1.024151802062988281e+00
5.628714843750000000e+03 4.699656250000000000e+03 5.132408142089843750e+01
5.642347656250000000e+03 4.735933593750000000e+03 5.789958190917968750e+01
2.842561523437500000e+03 5.407574218750000000e+03 6.619096374511718750e+01
1.339423046875000000e+04 2.699557617187500000e+03 8.514330863952636719e+00
5.528394531250000000e+03 3.990838623046875000e+03 8.758430480957031250e+01
5.541089843750000000e+03 4.028682861328125000e+03 8.356672668457031250e+01
2.903729980468750000e+03 5.394292968750000000e+03 6.520390319824218750e+01
5.471035156250000000e+03 3.984198242187500000e+03 7.698373413085937500e+01
2.242775878906250000e+03 5.538851562500000000e+03 7.944664001464843750e+01
2.345776123046875000e+03 5.537363281250000000e+03 7.967225646972656250e+01
5.523457031250000000e+03 4.571179687500000000e+03 4.613676452636718750e+01
5.509277343750000000e+03 4.547519531250000000e+03 4.880378723144531250e+01
5.429761718750000000e+03 4.520164062500000000e+03 4.072735595703125000e+01
1.328764160156250000e+03 5.677550781250000000e+03 7.876115417480468750e+01
5.295527343750000000e+03 4.017271240234375000e+03 7.281198120117187500e+01
5.386886718750000000e+03 4.287414062500000000e+03 7.517582702636718750e+01
5.476968750000000000e+03 4.557980468750000000e+03 5.000000000000000000e+01
2.625045898437500000e+03 5.493300781250000000e+03 6.942491149902343750e+01
3.516894531250000000e+03 4.955597656250000000e+03 5.525923156738281250e+01
5.676582031250000000e+03 4.043487792968750000e+03 8.356962585449218750e+01
5.462867187500000000e+03 4.609972656250000000e+03 5.000000000000000000e+01
5.497636718750000000e+03 4.596324218750000000e+03 4.989437866210937500e+01
4.157636718750000000e+03 4.398710937500000000e+03 4.880032348632812500e+01
5.479339843750000000e+03 4.434601562500000000e+03 4.000000000000000000e+01
5.533914062500000000e+03 3.943776367187500000e+03 9.431312561035156250e+01
5.477125000000000000e+03 3.942330566406250000e+03 9.416612243652343750e+01
4.262050781250000000e+03 4.348148437500000000e+03 4.845353698730468750e+01
4.244171875000000000e+03 4.379464843750000000e+03 4.763757324218750000e+01
5.482078125000000000e+03 4.532187500000000000e+03 4.998031616210937500e+01
5.383445312500000000e+03 4.018140625000000000e+03 8.475186157226562500e+01
5.411957031250000000e+03 3.979197509765625000e+03 9.581721496582031250e+01
2.476179687500000000e+03 5.552222656250000000e+03 7.637332153320312500e+01
1.190369140625000000e+04 2.635307128906250000e+03 1.622773742675781250e+01
2.461477783203125000e+03 5.502812500000000000e+03 7.170919799804687500e+01
5.560347656250000000e+03 4.573097656250000000e+03 4.000000000000000000e+01
2.176615478515625000e+03 5.528523437500000000e+03 7.387571716308593750e+01
1.352965625000000000e+04 2.179498779296875000e+03 5.441400408744812012e-01
1.350650781250000000e+04 2.146275146484375000e+03 5.162053108215332031e+00
5.596710937500000000e+03 4.182078125000000000e+03 4.855395507812500000e+01
5.715609375000000000e+03 4.163031250000000000e+03 5.183972167968750000e+01
5.227160156250000000e+03 4.012417968750000000e+03 6.293374633789062500e+01
5.636054687500000000e+03 4.331054687500000000e+03 3.655804443359375000e+01
5.566777343750000000e+03 4.677312500000000000e+03 4.257499694824218750e+01
2.901625488281250000e+03 5.476906250000000000e+03 7.500000000000000000e+01
2.117100097656250000e+03 5.543886718750000000e+03 7.310267639160156250e+01
5.491625000000000000e+03 4.030572021484375000e+03 7.048693847656250000e+01
1.284067187500000000e+04 2.467355712890625000e+03 6.971118927001953125e+00
5.271066406250000000e+03 3.966385742187500000e+03 8.975761413574218750e+01
3.172179443359375000e+03 5.249445312500000000e+03 6.932373046875000000e+01
1.251655859375000000e+04 2.634549072265625000e+03 8.304507255554199219e+00
3.186878173828125000e+03 5.208171875000000000e+03 6.256509399414062500e+01
1.232948046875000000e+04 2.684967529296875000e+03 7.848692893981933594e+00
5.730675781250000000e+03 4.109617187500000000e+03 6.558073425292968750e+01
5.377089843750000000e+03 4.395050781250000000e+03 6.162825012207031250e+01
5.642128906250000000e+03 4.394761718750000000e+03 3.496903991699218750e+01
5.366851562500000000e+03 4.114171875000000000e+03 3.986622619628906250e+01
5.332480468750000000e+03 4.014460449218750000e+03 7.979876708984375000e+01
5.408785156250000000e+03 4.128601562500000000e+03 3.925202941894531250e+01
2.518268066406250000e+03 5.500277343750000000e+03 7.059939575195312500e+01
5.267480468750000000e+03 4.048523193359375000e+03 5.221510314941406250e+01
1.753420898437500000e+03 5.622644531250000000e+03 7.433282470703125000e+01
1.638515380859375000e+03 5.673675781250000000e+03 7.538940429687500000e+01
2.845564453125000000e+03 5.590625000000000000e+03 8.541673278808593750e+01
5.217726562500000000e+03 3.982937255859375000e+03 7.180407714843750000e+01
5.466320312500000000e+03 4.472964843750000000e+03 4.000000000000000000e+01
2.773344970703125000e+03 5.566726562500000000e+03 7.999252319335937500e+01
5.484906250000000000e+03 4.075617431640625000e+03 5.873957824707031250e+01
5.167968750000000000e+03 4.035063232421875000e+03 4.612231445312500000e+01
5.319902343750000000e+03 4.099085937500000000e+03 4.273094177246093750e+01
2.748159423828125000e+03 5.473308593750000000e+03 6.889756774902343750e+01
5.178703125000000000e+03 3.977085205078125000e+03 6.998379516601562500e+01
5.206191406250000000e+03 3.953176269531250000e+03 8.691336059570312500e+01
1.220080468750000000e+04 2.738282714843750000e+03 6.359743118286132812e+00
2.629292480468750000e+03 5.635328125000000000e+03 8.627854919433593750e+01
5.302160156250000000e+03 4.137390625000000000e+03 3.760386657714843750e+01
1.419048583984375000e+03 5.682171875000000000e+03 7.848345947265625000e+01
1.789766357421875000e+03 5.628386718750000000e+03 7.405404663085937500e+01
1.360870849609375000e+03 5.692855468750000000e+03 7.746551513671875000e+01
2.420068847656250000e+03 5.447531250000000000e+03 7.065879821777343750e+01
1.352171875000000000e+04 1.968789794921875000e+03 1.380204200744628906e+00
2.388031738281250000e+03 5.427589843750000000e+03 7.141333007812500000e+01
2.254505615234375000e+03 5.486625000000000000e+03 7.189381408691406250e+01
1.348574609375000000e+04 2.078062744140625000e+03 5.149835586547851562e+00
5.460738281250000000e+03 4.119328125000000000e+03 4.236088562011718750e+01
5.453492187500000000e+03 4.152730468750000000e+03 3.824340820312500000e+01
1.349684765625000000e+04 2.171869384765625000e+03 4.190155982971191406e+00
1.849281494140625000e+03 5.613023437500000000e+03 7.425047302246093750e+01
5.170914062500000000e+03 4.020340332031250000e+03 4.996395874023437500e+01
1.352499218750000000e+04 1.931641845703125000e+03 4.913978576660156250e+00
5.563105468750000000e+03 4.178886718750000000e+03 4.891891479492187500e+01
5.421910156250000000e+03 4.063539062500000000e+03 6.316410827636718750e+01
5.416054687500000000e+03 4.103308593750000000e+03 4.353086853027343750e+01
5.506000000000000000e+03 4.485113281250000000e+03 4.000000000000000000e+01
5.503281250000000000e+03 4.507023437500000000e+03 4.261849975585937500e+01
5.378109375000000000e+03 4.078305664062500000e+03 5.665516662597656250e+01
2.964898681640625000e+03 5.381011718750000000e+03 6.464625549316406250e+01
5.412480468750000000e+03 4.565425781250000000e+03 4.227050781250000000e+01
2.992655029296875000e+03 5.359808593750000000e+03 6.355024719238281250e+01
2.687624267578125000e+03 5.539414062500000000e+03 7.275294494628906250e+01
5.282753906250000000e+03 4.079000244140625000e+03 4.484274291992187500e+01
2.420505859375000000e+03 5.587027343750000000e+03 7.944363403320312500e+01
3.615766845703125000e+03 4.847113281250000000e+03 5.472409057617187500e+01
5.347476562500000000e+03 4.059952148437500000e+03 6.249972534179687500e+01
2.635557861328125000e+03 5.536339843750000000e+03 7.124720764160156250e+01
5.231472656250000000e+03 4.062239013671875000e+03 4.607215881347656250e+01
2.567208251953125000e+03 5.490453125000000000e+03 6.978111267089843750e+01
2.348883056640625000e+03 5.594203125000000000e+03 8.171667480468750000e+01
5.607312500000000000e+03 4.135875000000000000e+03 5.809822082519531250e+01
5.643769531250000000e+03 4.168378906250000000e+03 4.827326965332031250e+01
1.991412109375000000e+03 5.563445312500000000e+03 7.485990905761718750e+01
5.565878906250000000e+03 4.145785156250000000e+03 5.774864196777343750e+01
5.250066406250000000e+03 4.082784667968750000e+03 3.979730224609375000e+01
3.310984863281250000e+03 5.083644531250000000e+03 5.775732421875000000e+01
3.975215087890625000e+03 4.490625000000000000e+03 5.026669311523437500e+01
1.168120703125000000e+04 2.417954345703125000e+03 2.517791748046875000e+01
5.191113281250000000e+03 4.044444824218750000e+03 4.592912292480468750e+01
3.261460937500000000e+03 5.114808593750000000e+03 5.848347473144531250e+01
5.618781250000000000e+03 4.055116210937500000e+03 7.956462097167968750e+01
3.043797851562500000e+03 5.506257812500000000e+03 7.637063598632812500e+01
3.002349853515625000e+03 5.422132812500000000e+03 7.000000000000000000e+01
5.530347656250000000e+03 4.073446044921875000e+03 6.669534301757812500e+01
5.751980468750000000e+03 4.059012939453125000e+03 7.129931640625000000e+01
5.483835937500000000e+03 4.134324218750000000e+03 4.091073608398437500e+01
2.855904296875000000e+03 5.471312500000000000e+03 7.647424316406250000e+01
5.575281250000000000e+03 4.072401611328125000e+03 7.459866333007812500e+01
2.479604248046875000e+03 5.651425781250000000e+03 8.165022277832031250e+01
1.350546093750000000e+04 2.087269775390625000e+03 3.348029136657714844e+00
5.610718750000000000e+03 4.712433593750000000e+03 5.109129333496093750e+01
2.367250732421875000e+03 5.469832031250000000e+03 7.197930908203125000e+01
5.382914062500000000e+03 4.150636718750000000e+03 3.735485839843750000e+01
5.538156250000000000e+03 4.213867187500000000e+03 3.889282226562500000e+01
5.503152343750000000e+03 3.987748291015625000e+03 8.138339233398437500e+01
5.563722656250000000e+03 4.021983642578125000e+03 8.971517944335937500e+01
5.669101562500000000e+03 4.330339843750000000e+03 3.610736083984375000e+01
5.434781250000000000e+03 4.017057861328125000e+03 7.637751770019531250e+01
2.279477783203125000e+03 5.518566406250000000e+03 7.802246093750000000e+01
2.376651855468750000e+03 5.535519531250000000e+03 7.829629516601562500e+01
5.602117187500000000e+03 4.271921875000000000e+03 3.753486633300781250e+01
5.532859375000000000e+03 4.556027343750000000e+03 4.363096618652343750e+01
5.451148437500000000e+03 4.518546875000000000e+03 4.411050415039062500e+01
1.298669433593750000e+03 5.676011718750000000e+03 7.903318786621093750e+01
5.302367187500000000e+03 4.027079101562500000e+03 6.833660888671875000e+01
5.378816406250000000e+03 4.300839843750000000e+03 7.987094116210937500e+01
5.492949218750000000e+03 4.556011718750000000e+03 4.998837280273437500e+01
5.465437500000000000e+03 4.561648437500000000e+03 5.000000000000000000e+01
5.667417968750000000e+03 4.363101562500000000e+03 3.484463500976562500e+01
5.691734375000000000e+03 4.067126220703125000e+03 7.602172851562500000e+01
5.658187500000000000e+03 4.123453125000000000e+03 5.803823852539062500e+01
4.139621093750000000e+03 4.425996093750000000e+03 4.842045593261718750e+01
2.966660400390625000e+03 5.479859375000000000e+03 7.000000000000000000e+01
5.745000000000000000e+03 4.342347656250000000e+03 3.032417297363281250e+01
5.499425781250000000e+03 3.930114990234375000e+03 8.999440002441406250e+01
3.099338623046875000e+03 5.531597656250000000e+03 8.562524414062500000e+01
4.210078125000000000e+03 4.374554687500000000e+03 4.823785400390625000e+01
5.707351562500000000e+03 4.333710937500000000e+03 3.337811279296875000e+01
5.779746093750000000e+03 4.014993652343750000e+03 7.476296997070312500e+01
5.376976562500000000e+03 3.990165771484375000e+03 9.507507324218750000e+01
2.508026123046875000e+03 5.544074218750000000e+03 7.518798828125000000e+01
1.193037500000000000e+04 2.668939941406250000e+03 1.212468338012695312e+01
5.693500000000000000e+03 4.366871093750000000e+03 3.355410766601562500e+01
5.569472656250000000e+03 4.589171875000000000e+03 4.000000000000000000e+01
5.555921875000000000e+03 4.564816406250000000e+03 4.034730529785156250e+01
1.353360937500000000e+04 2.194566406250000000e+03 1.889621734619140625e+00
2.947211914062500000e+03 5.557878906250000000e+03 7.929507446289062500e+01
5.590902343750000000e+03 4.205964843750000000e+03 4.124044799804687500e+01
5.689519531250000000e+03 4.175093750000000000e+03 4.673965454101562500e+01
5.211156250000000000e+03 4.016594726562500000e+03 5.927507019042968750e+01
5.632605468750000000e+03 4.321484375000000000e+03 3.680343627929687500e+01
5.548371093750000000e+03 4.659785156250000000e+03 4.017163085937500000e+01
2.929745117187500000e+03 5.441992187500000000e+03 6.982199096679687500e+01
5.752292968750000000e+03 4.279812500000000000e+03 3.751446533203125000e+01
2.864277343750000000e+03 5.533812500000000000e+03 8.000000000000000000e+01
1.290782031250000000e+04 2.481718994140625000e+03 6.657134056091308594e+00
5.252226562500000000e+03 3.972092529296875000e+03 8.381858825683593750e+01
5.295339843750000000e+03 3.973742919921875000e+03 9.087705993652343750e+01
1.255851171875000000e+04 2.605947021484375000e+03 8.327389717102050781e+00
5.515273437500000000e+03 4.178859375000000000e+03 4.080058288574218750e+01
1.236022265625000000e+04 2.704842773437500000e+03 7.748476028442382812e+00
5.742242187500000000e+03 4.150667968750000000e+03 5.675595092773437500e+01
5.394566406250000000e+03 4.400183593750000000e+03 5.962933349609375000e+01
5.638195312500000000e+03 4.385917968750000000e+03 3.507966613769531250e+01
5.364050781250000000e+03 4.104523437500000000e+03 4.312968444824218750e+01
5.756812500000000000e+03 4.097941406250000000e+03 6.638485717773437500e+01
5.630718750000000000e+03 4.411039062500000000e+03 3.511248779296875000e+01
2.508352539062500000e+03 5.473285156250000000e+03 7.013539123535156250e+01
3.195718750000000000e+03 5.488000000000000000e+03 9.152124023437500000e+01
2.713826416015625000e+03 5.607300781250000000e+03 8.238067626953125000e+01
1.723320312500000000e+03 5.631027343750000000e+03 7.456146240234375000e+01
1.668976562500000000e+03 5.664027343750000000e+03 7.505548095703125000e+01
2.827933105468750000e+03 5.635953125000000000e+03 9.407794189453125000e+01
5.241304687500000000e+03 3.997396972656250000e+03 7.123181152343750000e+01
5.675714843750000000e+03 4.249730468750000000e+03 3.805050659179687500e+01
2.791520751953125000e+03 5.538761718750000000e+03 7.996386718750000000e+01
2.734724609375000000e+03 5.539824218750000000e+03 7.672193908691406250e+01
2.505307128906250000e+03 5.833093750000000000e+03 9.525259399414062500e+01
5.324812500000000000e+03 4.108949218750000000e+03 3.987910461425781250e+01
2.715391845703125000e+03 5.478648437500000000e+03 6.904331970214843750e+01
5.173835937500000000e+03 3.992775390625000000e+03 6.348260498046875000e+01
5.193175781250000000e+03 3.969430175781250000e+03 7.534344482421875000e+01
1.213794921875000000e+04 2.742589355468750000e+03 6.632114410400390625e+00
2.623565185546875000e+03 5.585953125000000000e+03 7.902996826171875000e+01
5.317175781250000000e+03 4.133945312500000000e+03 3.795401000976562500e+01
2.772086669921875000e+03 5.464691406250000000e+03 6.916439819335937500e+01
5.704675781250000000e+03 4.270398437500000000e+03 3.753392028808593750e+01
1.390769287109375000e+03 5.694593750000000000e+03 7.724781799316406250e+01
3.144333251953125000e+03 5.437777343750000000e+03 9.656871032714843750e+01
3.258660400390625000e+03 5.541742187500000000e+03 9.522270202636718750e+01
2.390640869140625000e+03 5.438945312500000000e+03 7.083421325683593750e+01
2.228074707031250000e+03 5.500644531250000000e+03 7.276989746093750000e+01
5.723359375000000000e+03 4.229578125000000000e+03 4.010688781738281250e+01
5.431476562500000000e+03 4.140519531250000000e+03 3.872732543945312500e+01
3.048396484375000000e+03 5.451609375000000000e+03 7.523774719238281250e+01
5.562691406250000000e+03 4.258980468750000000e+03 3.761589050292968750e+01
6.313839843750000000e+03 4.750582031250000000e+03 6.999661254882812500e+01
2.397639648437500000e+03 5.738855468750000000e+03 9.490092468261718750e+01
5.662832031250000000e+03 4.290246093750000000e+03 3.728620910644531250e+01
2.393093505859375000e+03 5.662726562500000000e+03 8.506704711914062500e+01
3.408395019531250000e+03 5.102000000000000000e+03 6.611088562011718750e+01
2.881790039062500000e+03 5.414312500000000000e+03 6.738024902343750000e+01
6.203789062500000000e+03 4.577558593750000000e+03 4.003758239746093750e+01
5.400378906250000000e+03 4.071414550781250000e+03 6.155351257324218750e+01
6.320402343750000000e+03 4.592105468750000000e+03 6.809405517578125000e+01
5.418546875000000000e+03 4.541058593750000000e+03 4.212545776367187500e+01
2.684122558593750000e+03 5.510648437500000000e+03 6.914221191406250000e+01
5.278910156250000000e+03 4.067932128906250000e+03 4.797041320800781250e+01
2.692361083984375000e+03 5.552496093750000000e+03 7.532397460937500000e+01
6.184101562500000000e+03 4.677433593750000000e+03 4.997174072265625000e+01
5.327210937500000000e+03 4.069642578125000000e+03 5.391502380371093750e+01
2.626064208984375000e+03 5.507621093750000000e+03 6.943124389648437500e+01
5.224382812500000000e+03 4.055985595703125000e+03 4.721862792968750000e+01
2.544031250000000000e+03 5.508125000000000000e+03 7.058839416503906250e+01
2.331429199218750000e+03 5.584652343750000000e+03 8.183921813964843750e+01
5.600769531250000000e+03 4.102246093750000000e+03 6.509173583984375000e+01
5.620449218750000000e+03 4.175613281250000000e+03 4.808872985839843750e+01
6.382277343750000000e+03 4.592773437500000000e+03 6.999963378906250000e+01
5.593699218750000000e+03 4.151125000000000000e+03 5.415190124511718750e+01
5.264683593750000000e+03 4.093527343750000000e+03 3.922821044921875000e+01
3.652306884765625000e+03 4.857468750000000000e+03 6.322271728515625000e+01
6.142937500000000000e+03 4.616109375000000000e+03 4.882664489746093750e+01
3.574509277343750000e+03 5.028105468750000000e+03 8.965138244628906250e+01
5.183914062500000000e+03 4.025415771484375000e+03 4.989875793457031250e+01
5.754500000000000000e+03 4.191074218750000000e+03 4.848175048828125000e+01
3.706163085937500000e+03 4.816300781250000000e+03 6.642712402343750000e+01
3.001017089843750000e+03 5.506851562500000000e+03 7.095054626464843750e+01
3.006363769531250000e+03 5.381617187500000000e+03 6.669505310058593750e+01
5.526445312500000000e+03 4.061236328125000000e+03 6.974114990234375000e+01
5.733050781250000000e+03 4.036543701171875000e+03 8.052076721191406250e+01
5.463828125000000000e+03 4.129269531250000000e+03 4.037768554687500000e+01
5.502039062500000000e+03 4.129894531250000000e+03 4.644531250000000000e+01
5.573343750000000000e+03 4.061267089843750000e+03 7.891387939453125000e+01
2.475431396484375000e+03 5.604183593750000000e+03 7.988772583007812500e+01
1.348544531250000000e+04 2.067662841796875000e+03 5.135089874267578125e+00
5.612515625000000000e+03 4.725792968750000000e+03 5.397967529296875000e+01
2.830400390625000000e+03 5.477125000000000000e+03 7.522982788085937500e+01
5.397601562500000000e+03 4.144195312500000000e+03 3.797900390625000000e+01
5.556574218750000000e+03 4.204339843750000000e+03 4.300912475585937500e+01
3.020804931640625000e+03 5.571808593750000000e+03 8.393371582031250000e+01
2.256506835937500000e+03 5.605761718750000000e+03 8.882606506347656250e+01
5.654992187500000000e+03 4.334859375000000000e+03 3.644667053222656250e+01
6.347031250000000000e+03 4.637261718750000000e+03 6.999929809570312500e+01
2.266973632812500000e+03 5.508160156250000000e+03 7.516453552246093750e+01
2.411302734375000000e+03 5.549265625000000000e+03 7.765682983398437500e+01
2.312439697265625000e+03 5.502355468750000000e+03 7.613706970214843750e+01
5.528359375000000000e+03 4.547855468750000000e+03 4.485813903808593750e+01
5.595898437500000000e+03 4.238468750000000000e+03 3.944898986816406250e+01
5.602296875000000000e+03 4.283363281250000000e+03 3.744912719726562500e+01
5.308667968750000000e+03 4.037171875000000000e+03 6.530534362792968750e+01
5.311542968750000000e+03 4.006975097656250000e+03 7.981108093261718750e+01
5.505113281250000000e+03 4.574070312500000000e+03 4.968588256835937500e+01
5.504714843750000000e+03 4.539140625000000000e+03 4.911221313476562500e+01
5.457339843750000000e+03 4.553925781250000000e+03 4.997473144531250000e+01
5.468296875000000000e+03 4.590554687500000000e+03 5.000000000000000000e+01
5.704312500000000000e+03 4.088740722656250000e+03 7.160780334472656250e+01
5.630980468750000000e+03 4.128421875000000000e+03 5.819218444824218750e+01
6.234253906250000000e+03 4.760480468750000000e+03 6.521499633789062500e+01
2.980065673828125000e+03 5.446765625000000000e+03 7.000000000000000000e+01
5.750628906250000000e+03 4.346867187500000000e+03 3.032255554199218750e+01
5.480953125000000000e+03 3.955495361328125000e+03 8.674710083007812500e+01
3.084064453125000000e+03 5.492277343750000000e+03 8.285516357421875000e+01
3.522704589843750000e+03 5.136011718750000000e+03 8.250422668457031250e+01
5.700011718750000000e+03 4.313792968750000000e+03 3.534133911132812500e+01
3.309883056640625000e+03 5.143722656250000000e+03 7.042733764648437500e+01
5.352566406250000000e+03 3.996971679687500000e+03 9.007989501953125000e+01
2.494242431640625000e+03 5.511117187500000000e+03 7.203276062011718750e+01
1.195471484375000000e+04 2.601757568359375000e+03 1.605467224121093750e+01
5.701796875000000000e+03 4.374304687500000000e+03 3.382177734375000000e+01
5.550398437500000000e+03 4.589750000000000000e+03 4.000000000000000000e+01
5.680312500000000000e+03 4.353769531250000000e+03 3.530627441406250000e+01
3.567070556640625000e+03 4.934980468750000000e+03 5.754109191894531250e+01
2.954164306640625000e+03 5.580332031250000000e+03 8.354705810546875000e+01
2.938652587890625000e+03 5.516503906250000000e+03 7.185038757324218750e+01
5.674468750000000000e+03 4.195902343750000000e+03 4.175714111328125000e+01
5.213296875000000000e+03 4.024439697265625000e+03 5.513905334472656250e+01
5.629070312500000000e+03 4.311734375000000000e+03 3.705638122558593750e+01
5.702464843750000000e+03 4.154046875000000000e+03 5.425935363769531250e+01
2.943834960937500000e+03 5.402777343750000000e+03 6.728541564941406250e+01
5.742632812500000000e+03 4.273203125000000000e+03 3.838192749023437500e+01
2.871006103515625000e+03 5.583507812500000000e+03 8.082612609863281250e+01
2.885973388671875000e+03 5.472675781250000000e+03 7.533894348144531250e+01
6.307175781250000000e+03 4.686468750000000000e+03 6.999934387207031250e+01
5.274660156250000000e+03 3.979576416015625000e+03 8.449319458007812500e+01
3.768340820312500000e+03 4.781804687500000000e+03 6.704220581054687500e+01
5.538546875000000000e+03 4.178054687500000000e+03 4.484674072265625000e+01
5.565082031250000000e+03 4.135207031250000000e+03 5.896543884277343750e+01
6.262062500000000000e+03 4.870058593750000000e+03 6.499989318847656250e+01
5.623632812500000000e+03 4.390750000000000000e+03 3.530906677246093750e+01
5.360085937500000000e+03 4.094451171875000000e+03 4.630648803710937500e+01
5.761707031250000000e+03 4.068935302734375000e+03 6.996977233886718750e+01
5.743078125000000000e+03 4.119550781250000000e+03 6.199581909179687500e+01
5.655812500000000000e+03 4.380574218750000000e+03 3.452848815917968750e+01
3.233540039062500000e+03 5.479398437500000000e+03 9.653968811035156250e+01
2.689857177734375000e+03 5.649976562500000000e+03 9.231977844238281250e+01
2.756982666015625000e+03 5.604160156250000000e+03 8.271842956542968750e+01
5.641902343750000000e+03 4.416949218750000000e+03 3.492858886718750000e+01
5.237972656250000000e+03 3.987251220703125000e+03 7.426216125488281250e+01
3.252676513671875000e+03 5.164421875000000000e+03 6.494161987304687500e+01
2.826847412109375000e+03 5.547808593750000000e+03 8.073211669921875000e+01
2.758058593750000000e+03 5.517578125000000000e+03 7.572845458984375000e+01
2.548625000000000000e+03 5.804109375000000000e+03 9.525259399414062500e+01
5.350585937500000000e+03 4.120351562500000000e+03 3.924949645996093750e+01
2.483678466796875000e+03 5.821968750000000000e+03 9.500000000000000000e+01
6.232179687500000000e+03 4.692367187500000000e+03 6.475025939941406250e+01
5.197460937500000000e+03 3.979202880859375000e+03 7.036413574218750000e+01
6.104832031250000000e+03 4.676882812500000000e+03 6.221215820312500000e+01
2.609339843750000000e+03 5.548152343750000000e+03 7.407052612304687500e+01
5.315148437500000000e+03 4.125101562500000000e+03 3.830480957031250000e+01
2.590361816406250000e+03 5.633992187500000000e+03 8.584997558593750000e+01
2.792437500000000000e+03 5.440816406250000000e+03 6.840731811523437500e+01
2.527677734375000000e+03 5.716070312500000000e+03 9.579499816894531250e+01
3.163061279296875000e+03 5.444152343750000000e+03 9.656871032714843750e+01
3.239965087890625000e+03 5.596160156250000000e+03 9.522259521484375000e+01
3.475990234375000000e+03 5.071007812500000000e+03 6.902561950683593750e+01
5.711210937500000000e+03 4.345531250000000000e+03 3.228410339355468750e+01
5.718000000000000000e+03 4.254332031250000000e+03 3.863786315917968750e+01
3.619144775390625000e+03 4.926070312500000000e+03 6.840222167968750000e+01
5.424300781250000000e+03 4.122109375000000000e+03 3.989892578125000000e+01
5.437964843750000000e+03 4.158289062500000000e+03 3.747175598144531250e+01
3.084857421875000000e+03 5.439261718750000000e+03 8.465432739257812500e+01
5.751679687500000000e+03 4.304542968750000000e+03 3.375260925292968750e+01
2.443939453125000000e+03 5.725003906250000000e+03 8.490092468261718750e+01
5.653250000000000000e+03 4.283585937500000000e+03 3.735900878906250000e+01
2.388215332031250000e+03 5.614402343750000000e+03 8.015447998046875000e+01
3.379541503906250000e+03 5.120480468750000000e+03 7.070491027832031250e+01
2.890255859375000000e+03 5.428664062500000000e+03 6.902871704101562500e+01
6.140496093750000000e+03 4.564992187500000000e+03 5.291174316406250000e+01
5.411734375000000000e+03 4.093125000000000000e+03 4.912174987792968750e+01
5.391988281250000000e+03 4.044674072265625000e+03 7.485173034667968750e+01
6.285894531250000000e+03 4.591691406250000000e+03 6.237205505371093750e+01
2.728749267578125000e+03 5.495621093750000000e+03 6.938896179199218750e+01
5.257707031250000000e+03 4.067528076171875000e+03 4.661370849609375000e+01
6.209242187500000000e+03 4.589664062500000000e+03 4.032943725585937500e+01
3.165584960937500000e+03 5.522699218750000000e+03 8.772267150878906250e+01
5.332734375000000000e+03 4.080084716796875000e+03 5.036157226562500000e+01
5.341789062500000000e+03 4.048513916015625000e+03 6.723681640625000000e+01
2.659983642578125000e+03 5.529027343750000000e+03 7.020220947265625000e+01
2.537780517578125000e+03 5.481867187500000000e+03 6.995860290527343750e+01
2.346998535156250000e+03 5.555468750000000000e+03 8.007766723632812500e+01
5.615515625000000000e+03 4.084194580078125000e+03 6.959997558593750000e+01
5.629550781250000000e+03 4.184117187500000000e+03 4.500286865234375000e+01
6.351914062500000000e+03 4.592351562500000000e+03 6.999972534179687500e+01
5.602718750000000000e+03 4.158992187500000000e+03 5.036015319824218750e+01
5.255773437500000000e+03 4.089429199218750000e+03 3.966065979003906250e+01
6.155488281250000000e+03 4.628171875000000000e+03 4.536260986328125000e+01
6.079679687500000000e+03 4.563921875000000000e+03 6.846902465820312500e+01
5.187121093750000000e+03 4.034823974609375000e+03 4.759011840820312500e+01
5.741339843750000000e+03 4.181371093750000000e+03 4.971846008300781250e+01
3.716690673828125000e+03 4.835597656250000000e+03 7.855282592773437500e+01
2.994171630859375000e+03 5.493339843750000000e+03 7.000000000000000000e+01
3.021431884765625000e+03 5.392730468750000000e+03 6.997796630859375000e+01
3.193979980468750000e+03 5.243296875000000000e+03 7.578193664550781250e+01
5.761308593750000000e+03 4.031134765625000000e+03 7.446755981445312500e+01
5.466804687500000000e+03 4.138695312500000000e+03 3.966725158691406250e+01
5.499390625000000000e+03 4.119507812500000000e+03 5.034089660644531250e+01
5.551859375000000000e+03 4.067270751953125000e+03 7.305908203125000000e+01
5.704515625000000000e+03 4.040793701171875000e+03 8.383500671386718750e+01
2.480448242187500000e+03 5.567261718750000000e+03 7.819146728515625000e+01
5.592406250000000000e+03 4.043456787109375000e+03 8.573039245605468750e+01
2.806993652343750000e+03 5.498742187500000000e+03 7.728486633300781250e+01
5.374546875000000000e+03 4.132546875000000000e+03 3.862300109863281250e+01
5.571285156250000000e+03 4.188269531250000000e+03 4.757447814941406250e+01
3.019893066406250000e+03 5.543941406250000000e+03 7.698948669433593750e+01
5.550222656250000000e+03 4.229457031250000000e+03 3.858805847167968750e+01
5.639765625000000000e+03 4.340726562500000000e+03 3.613183593750000000e+01
2.308199218750000000e+03 5.633972656250000000e+03 9.006082153320312500e+01
2.241194335937500000e+03 5.521882812500000000e+03 7.606266784667968750e+01
2.374561279296875000e+03 5.517960937500000000e+03 7.704248046875000000e+01
2.247502441406250000e+03 5.582039062500000000e+03 8.584167480468750000e+01
5.537179687500000000e+03 4.564308593750000000e+03 4.293554687500000000e+01
5.585750000000000000e+03 4.230046875000000000e+03 3.982028198242187500e+01
5.624964843750000000e+03 4.261593750000000000e+03 3.769642639160156250e+01
3.064450683593750000e+03 5.587597656250000000e+03 9.495031738281250000e+01
5.318382812500000000e+03 4.016782958984375000e+03 7.533570861816406250e+01
6.059625000000000000e+03 4.634718750000000000e+03 7.000000000000000000e+01
6.182691406250000000e+03 4.819195312500000000e+03 5.023025512695312500e+01
5.688203125000000000e+03 4.114238281250000000e+03 6.292158508300781250e+01
5.640027343750000000e+03 4.136828125000000000e+03 5.409860229492187500e+01
6.274328125000000000e+03 4.756355468750000000e+03 6.999909973144531250e+01
6.118523437500000000e+03 4.880808593750000000e+03 6.495495605468750000e+01
5.130183593750000000e+03 3.943978515625000000e+03 7.986824035644531250e+01
6.125632812500000000e+03 4.940097656250000000e+03 6.603746032714843750e+01
3.896881347656250000e+03 4.834820312500000000e+03 7.035255432128906250e+01
3.518201660156250000e+03 5.098281250000000000e+03 7.782821655273437500e+01
5.709937500000000000e+03 4.297960937500000000e+03 3.620947265625000000e+01
3.493514648437500000e+03 5.184062500000000000e+03 9.218214416503906250e+01
3.769985595703125000e+03 4.735878906250000000e+03 5.975466918945312500e+01
2.488840332031250000e+03 5.495156250000000000e+03 7.075537109375000000e+01
3.839894531250000000e+03 5.065777343750000000e+03 9.500000000000000000e+01
5.093691406250000000e+03 3.936888427734375000e+03 8.947207641601562500e+01
3.293049072265625000e+03 5.113457031250000000e+03 5.940118408203125000e+01
5.677093750000000000e+03 4.346164062500000000e+03 3.504736328125000000e+01
3.573239746093750000e+03 4.947277343750000000e+03 5.982633972167968750e+01
3.848090332031250000e+03 5.152328125000000000e+03 1.000000000000000000e+02
2.941570312500000000e+03 5.539226562500000000e+03 7.649580383300781250e+01
5.687468750000000000e+03 4.232171875000000000e+03 3.926986694335937500e+01
5.219601562500000000e+03 4.029469238281250000e+03 5.471371459960937500e+01
5.625484375000000000e+03 4.303558593750000000e+03 3.721458435058593750e+01
5.701511718750000000e+03 4.183867187500000000e+03 4.552398681640625000e+01
2.966476562500000000e+03 5.431472656250000000e+03 7.000000000000000000e+01
5.752984375000000000e+03 4.252035156250000000e+03 3.971643066406250000e+01
3.353425537109375000e+03 5.079773437500000000e+03 5.846743774414062500e+01
2.863389892578125000e+03 5.486652343750000000e+03 7.931584167480468750e+01
6.317894531250000000e+03 4.701449218750000000e+03 6.999862670898437500e+01
5.133394531250000000e+03 4.019544189453125000e+03 5.364389038085937500e+01
3.728803466796875000e+03 4.763644531250000000e+03 5.709614562988281250e+01
5.531640625000000000e+03 4.167769531250000000e+03 4.581500244140625000e+01
5.587117187500000000e+03 4.120949218750000000e+03 6.054278564453125000e+01
6.217593750000000000e+03 4.875757812500000000e+03 5.500000000000000000e+01
3.928448974609375000e+03 4.966140625000000000e+03 9.029563903808593750e+01
5.618253906250000000e+03 4.378593750000000000e+03 3.541372680664062500e+01
3.141414794921875000e+03 5.357535156250000000e+03 8.643005371093750000e+01
3.053153564453125000e+03 5.357265625000000000e+03 6.646562194824218750e+01
5.756042968750000000e+03 4.128984375000000000e+03 6.131381225585937500e+01
5.679542968750000000e+03 4.385128906250000000e+03 3.420390319824218750e+01
3.240399658203125000e+03 5.523324218750000000e+03 9.437826538085937500e+01
2.735859619140625000e+03 5.568195312500000000e+03 7.949618530273437500e+01
2.769527343750000000e+03 5.621996093750000000e+03 8.685105895996093750e+01
2.863350585937500000e+03 5.604777343750000000e+03 8.529563903808593750e+01
5.234703125000000000e+03 3.977272949218750000e+03 7.816273498535156250e+01
3.281718750000000000e+03 5.172527343750000000e+03 7.759790039062500000e+01
2.795316650390625000e+03 5.559851562500000000e+03 8.069598388671875000e+01
6.076617187500000000e+03 4.738769531250000000e+03 6.594522094726562500e+01
5.111277343750000000e+03 3.981541992187500000e+03 7.038677978515625000e+01
2.503406494140625000e+03 5.788269531250000000e+03 9.050517272949218750e+01
6.222464843750000000e+03 4.676648437500000000e+03 6.012968444824218750e+01
6.095781250000000000e+03 4.816363281250000000e+03 6.509497070312500000e+01
6.114000000000000000e+03 4.693648437500000000e+03 5.715969848632812500e+01
2.604706054687500000e+03 5.530667968750000000e+03 7.150694274902343750e+01
5.321109375000000000e+03 4.143062500000000000e+03 3.747982788085937500e+01
2.628898681640625000e+03 5.612230468750000000e+03 8.176058959960937500e+01
3.629620361328125000e+03 5.168441406250000000e+03 9.449385070800781250e+01
5.165046875000000000e+03 3.944063476562500000e+03 8.524775695800781250e+01
5.171003906250000000e+03 3.967246826171875000e+03 7.488868713378906250e+01
3.441321044921875000e+03 5.084652343750000000e+03 6.412469482421875000e+01
5.738453125000000000e+03 4.356312500000000000e+03 3.302876281738281250e+01
5.695808593750000000e+03 4.358027343750000000e+03 3.420802307128906250e+01
3.585869873046875000e+03 4.915628906250000000e+03 5.747434997558593750e+01
5.060339843750000000e+03 3.982012207031250000e+03 7.232092285156250000e+01
3.087861572265625000e+03 5.298511718750000000e+03 6.099114990234375000e+01
3.072090576171875000e+03 5.479234375000000000e+03 8.049641418457031250e+01
5.740609375000000000e+03 4.299398437500000000e+03 3.523699951171875000e+01
2.484053466796875000e+03 5.698347656250000000e+03 8.500906372070312500e+01
5.674445312500000000e+03 4.272992187500000000e+03 3.743405151367187500e+01
2.433618408203125000e+03 5.630429687500000000e+03 8.000000000000000000e+01
3.345628173828125000e+03 5.132027343750000000e+03 7.153230285644531250e+01
2.912195800781250000e+03 5.408644531250000000e+03 6.685237121582031250e+01
6.125417968750000000e+03 4.590410156250000000e+03 5.567176818847656250e+01
5.381265625000000000e+03 4.089501464843750000e+03 5.099645996093750000e+01
6.303578125000000000e+03 4.623734375000000000e+03 6.502540588378906250e+01
3.394657958984375000e+03 5.158464843750000000e+03 8.675769042968750000e+01
2.731557373046875000e+03 5.510316406250000000e+03 7.125492858886718750e+01
5.273265625000000000e+03 4.057739746093750000e+03 4.978500366210937500e+01
6.237714843750000000e+03 4.588914062500000000e+03 4.939434814453125000e+01
3.180228271484375000e+03 5.461484375000000000e+03 9.498155212402343750e+01
5.313785156250000000e+03 4.089599853515625000e+03 4.335360717773437500e+01
5.368957031250000000e+03 4.052214355468750000e+03 6.995877075195312500e+01
6.176000000000000000e+03 4.576785156250000000e+03 4.280422973632812500e+01
5.161992187500000000e+03 4.008945800781250000e+03 5.579425048828125000e+01
2.349093750000000000e+03 5.574628906250000000e+03 8.021612548828125000e+01
5.604261718750000000e+03 4.076046630859375000e+03 7.372219848632812500e+01
5.639136718750000000e+03 4.192820312500000000e+03 4.185556030273437500e+01
6.360664062500000000e+03 4.607218750000000000e+03 6.999934387207031250e+01
5.096359375000000000e+03 4.053625000000000000e+03 5.392907714843750000e+01
5.132386718750000000e+03 4.035614501953125000e+03 4.875050354003906250e+01
6.165109375000000000e+03 4.643417968750000000e+03 4.515542602539062500e+01
5.051082031250000000e+03 3.960735107421875000e+03 7.823185729980468750e+01
5.036742187500000000e+03 3.926545410156250000e+03 8.952024841308593750e+01
5.740011718750000000e+03 4.211527343750000000e+03 4.370401000976562500e+01
3.682811767578125000e+03 4.851175781250000000e+03 7.048693847656250000e+01
3.748764404296875000e+03 4.817957031250000000e+03 7.885992431640625000e+01
3.017223144531250000e+03 5.433371093750000000e+03 7.074337768554687500e+01
5.149285156250000000e+03 4.032298339843750000e+03 4.546102905273437500e+01
2.974927978515625000e+03 5.212265625000000000e+03 7.990325927734375000e+01
5.450406250000000000e+03 4.143949218750000000e+03 3.891810607910156250e+01
5.486304687500000000e+03 4.144019531250000000e+03 4.030824279785156250e+01
5.544566406250000000e+03 4.041851562500000000e+03 7.925447082519531250e+01
5.712023437500000000e+03 4.055098144531250000e+03 7.877882385253906250e+01
2.471442626953125000e+03 5.535183593750000000e+03 7.441729736328125000e+01
5.165613281250000000e+03 4.022539062500000000e+03 4.937515258789062500e+01
2.887701904296875000e+03 5.130058593750000000e+03 8.648005676269531250e+01
5.389851562500000000e+03 4.126359375000000000e+03 3.927027893066406250e+01
5.141273437500000000e+03 3.985873291015625000e+03 6.585630798339843750e+01
3.013931396484375000e+03 5.527429687500000000e+03 7.395663452148437500e+01
3.833819580078125000e+03 4.729410156250000000e+03 6.007405090332031250e+01
5.121921875000000000e+03 4.031067382812500000e+03 5.231588745117187500e+01
2.984133300781250000e+03 5.092667968750000000e+03 7.580052185058593750e+01
2.933869873046875000e+03 5.057722656250000000e+03 8.819525146484375000e+01
3.191766601562500000e+03 5.159281250000000000e+03 5.951902770996093750e+01
2.258872558593750000e+03 5.631144531250000000e+03 9.059497070312500000e+01
2.839981933593750000e+03 5.083800781250000000e+03 9.664605712890625000e+01
5.567007812500000000e+03 4.213359375000000000e+03 4.018188476562500000e+01
5.615578125000000000e+03 4.254226562500000000e+03 3.846972656250000000e+01
5.646062500000000000e+03 4.252890625000000000e+03 3.787712097167968750e+01
5.315554687500000000e+03 4.047684570312500000e+03 6.226580810546875000e+01
5.307410156250000000e+03 3.997002929687500000e+03 8.425674438476562500e+01
6.063265625000000000e+03 4.606773437500000000e+03 6.980909729003906250e+01
6.214757812500000000e+03 4.798136718750000000e+03 5.726185607910156250e+01
2.809801025390625000e+03 5.366800781250000000e+03 6.774499511718750000e+01
5.066367187500000000e+03 4.174472656250000000e+03 5.120111083984375000e+01
5.646660156250000000e+03 4.111792968750000000e+03 5.981066894531250000e+01
5.616332031250000000e+03 4.143746093750000000e+03 5.430648803710937500e+01
6.263222656250000000e+03 4.740820312500000000e+03 7.000000000000000000e+01
6.114933593750000000e+03 4.924613281250000000e+03 6.614735412597656250e+01
3.909648437500000000e+03 4.856753906250000000e+03 7.270063781738281250e+01
3.871251464843750000e+03 4.791078125000000000e+03 6.660470581054687500e+01
5.713550781250000000e+03 4.277218750000000000e+03 3.732092285156250000e+01
3.512994140625000000e+03 5.073789062500000000e+03 7.955592346191406250e+01
6.159835937500000000e+03 4.859171875000000000e+03 5.518972778320312500e+01
3.859536132812500000e+03 5.076949218750000000e+03 9.000000000000000000e+01
5.109625000000000000e+03 3.932226562500000000e+03 8.982598876953125000e+01
5.074554687500000000e+03 4.019079589843750000e+03 6.558493041992187500e+01
5.686964843750000000e+03 4.329230468750000000e+03 3.491581726074218750e+01
3.550588623046875000e+03 4.958019531250000000e+03 5.748217773437500000e+01
